# .PCD v0.7 - Point Cloud Data file format
VERSION 0.7
FIELDS x y z
SIZE 4 4 4
TYPE F F F
COUNT 1 1 1
WIDTH 199
HEIGHT 1
VIEWPOINT 0 0 0 1 0 0 0
POINTS 199
DATA ascii
-0.0030862074 -0.034358326 -0.003
-0.010584383 -0.033202786 -0.003
0.009696967 -0.032563966 -0.003
-0.0051952279 -0.031595368 -0.003
0.00076022366 -0.031504367 -0.003
0.0064786435 -0.031680632 -0.003
-0.0090320865 -0.030254815 -0.003
-0.0093774404 -0.029424567 -0.003
0.0076127085 -0.029237445 -0.003
-0.0089971907 -0.026076414 -0.003
-0.0029460662 -0.025130145 -0.003
0.0022826723 -0.025342397 -0.003
-0.0089595374 -0.024933361 -0.003
-0.0013196571 -0.021998439 -0.003
-0.0039151548 -0.020838857 -0.003
-0.00064035552 -0.020567723 -0.003
-0.010242476 -0.020131402 -0.003
0.00051562325 -0.020299312 -0.003
0.005400857 -0.020346615 -0.003
0.01116346 -0.019517818 -0.003
0.0012320299 -0.014746089 -0.003
0.00049485592 -0.012582839 -0.003
0.010897996 -0.012606299 -0.003
0.0043297089 -0.012300737 -0.003
0.008913679 -0.0096887704 -0.003
0.005193308 -0.0090984972 -0.003
-0.00059419079 -0.0055720815 -0.003
0.0032599145 -0.0048843957 -0.003
0.0051209331 -0.004142045 -0.003
-0.012499999 -0.0034340341 -0.0027464493
-0.0096754907 -0.0023199618 -0.003
-0.0083287219 -0.0015466399 -0.003
0.0089328215 -0.0015441123 -0.003
0.012499999 -0.0011882279 -0.0029448008
0.0089936946 0.00086091831 -0.003
-0.010572202 0.0054763453 -0.003
-0.012382848 0.0064889761 -0.003
0.002656552 0.0069490923 -0.003
-0.0089892261 0.0073625175 -0.003
-0.012499999 0.0089065693 -0.002754539
0.0030742586 0.010119209 -0.003
-0.0087021235 0.01119994 -0.003
0.01050753 0.014587277 -0.003
-0.0041848687 0.016187524 -0.003
-0.0034300531 0.01612439 -0.003
-0.0022233324 0.016086765 -0.003
0.0011641998 0.017188337 -0.003
-0.0048915818 0.02057354 -0.003
-0.005330408 0.021752357 -0.003
-0.0059884437 0.022680027 -0.003
0.0060073398 0.023311593 -0.003
-0.0065887715 0.024420474 -0.003
-0.0065293759 0.024841193 -0.003
0.011789525 0.026347155 -0.003
0.0083756074 0.026660714 -0.003
0.0050792098 0.031043392 -0.003
0.0067147189 0.031184264 -0.003
0.0038275882 0.031782717 -0.003
0.01240713 0.032309834 -0.003
0.010339873 0.032755602 -0.003
0.0022954866 0.033482887 -0.003
0.010414492 0.033476658 -0.003
0.012499999 -0.011179804 -0.0015399259
0.012499999 -0.0092372857 -0.0012473005
-0.012499999 0.028468912 -0.0013189098
0.0017334113 0.035 -0.0013984053
0.012499999 -0.022585971 -0.00077520614
0.012499999 -0.020905403 -0.0009996111
0.012499999 0.022865839 -0.00086858415
-0.0018454834 0.035 -0.00087408721
0.0062065595 -0.035 -0.00040296582
-0.012499999 -0.0032139041 -3.6136247e-05
-0.012499999 -0.030159498 8.8184606e-05
-0.012499999 -0.023708258 0.00016739138
0.012499999 -0.0054374663 9.8268094e-05
-0.012499999 0.022846755 0.0010454961
0.0086674718 -0.035 0.0015999074
0.009745514 -0.035 0.0018036279
0.012499999 0.022396414 0.0018883961
-0.012499999 -0.030422373 0.0021137765
-0.012499999 0.0062606167 0.0022118138
-0.012499999 0.01360165 0.002148103
-0.012499999 0.030331019 0.0020428514
0.0065127984 0.035 0.0024428878
-0.0099473447 -0.035 0.0028613904
0.012499999 -0.012443013 0.0025780564
0.012499999 -0.00041577162 0.00269916
-0.012499999 0.024425637 0.0029546244
0.0083527528 0.035 0.0027159119
0.0095205624 0.035 0.0028341531
-0.0077598481 -0.0028463695 0.0033402271
-0.0044225371 0.0021162117 0.0033056866
0.0082064094 0.0025605094 0.0033267043
-0.012499999 0.014834927 0.0032610095
-0.012499999 -0.021046445 0.0036182492
0.0075383047 -0.0067212945 0.0039310372
-0.0088288952 0.0066850567 0.0039223088
0.0049823709 0.0069456352 0.0039850711
-0.012499999 0.011832336 0.003986367
0.012499999 0.029313993 0.0036223149
0.0043297829 -0.035 0.0041975388
0.012499999 -0.016283408 0.0041013109
-0.012499999 -0.0099108806 0.004223818
-0.010727411 -0.0076955543 0.0041656941
0.0018438111 -0.0071676164 0.0040385365
0.0049115187 0.0084048072 0.0043365229
0.0026331306 0.008890463 0.0044534965
-0.012499999 0.01549028 0.0040882062
-0.012499999 0.027770245 0.0043398286
-0.0088257641 -0.0096432902 0.0046897288
0.0016081878 -0.0091979709 0.0045367498
0.0051920749 0.0094894934 0.0046368958
-0.012499999 0.026696566 0.0046606604
-0.0025171116 -0.035 0.0052832677
-0.012499999 -0.016077071 0.0053061624
-0.0025231997 -0.011767067 0.0054193051
0.012499999 0.017311441 0.0052533215
-0.012499999 0.021784201 0.0051125744
0.0044083544 0.035 0.005125701
0.010862917 0.035 0.0050617419
-0.010178375 -0.0122157 0.0055951192
0.0010080563 -0.012484961 0.0057171257
-0.012499999 0.027939958 0.005891677
-0.010688499 0.035 0.0055021625
-0.012499999 -0.01376876 0.0062871994
-0.0083938725 -0.013846857 0.0063342168
-0.0063038357 0.013334617 0.0061021149
-0.0047351518 0.013711735 0.0062729912
-0.0035471229 0.035 0.0062165027
-0.00052035181 0.035 0.0062146885
-0.0020875263 -0.035 0.0066630989
0.010279323 -0.014272033 0.0065268702
0.0010298686 0.014320745 0.0065489421
-0.012499999 0.019273341 0.0065107429
0.012499999 -0.026852757 0.0072548511
0.012499999 -0.020363921 0.0073459148
-0.0070580859 0.015612463 0.0072289212
-0.012499999 0.017563237 0.007090223
-0.012499999 0.030989328 0.0072494531
-0.0017755574 -0.035 0.0076568308
-0.012499999 -0.029193958 0.0078700148
0.0093981801 -0.016756112 0.0078837033
0.003045189 0.016287491 0.0076154014
0.0074740616 0.017124306 0.0080945082
0.012499999 -0.034799568 0.0087981336
-0.012499999 -0.032195326 0.0085628033
0.0085095819 -0.018357458 0.0089161377
-0.0036254381 0.035 0.0086285807
0.012499999 0.034487903 0.009320179
0.011553191 0.035 0.0090272194
-0.000285774 0.019677166 0.0098474212
-0.0096492469 -0.035 0.010381244
-0.0011361896 -0.020438988 0.010451471
0.0063054292 -0.020976223 0.010912368
-0.010063169 0.035 0.010941966
-0.0068930648 -0.021625664 0.011469528
-0.0025276439 -0.021146443 0.011058399
-0.0013251724 -0.021270599 0.011164915
-0.0081491582 -0.021866294 0.011675964
0.010439727 -0.021984834 0.011777661
-0.012499999 0.029073328 0.011896824
0.0088722166 -0.035 0.012140009
0.012499999 0.033273317 0.012162214
-0.0017382982 0.034999996 0.012360841
-0.003851518 -0.035 0.012625123
-0.012499999 -0.028343715 0.012682332
0.002554277 0.023688668 0.013481573
-0.0059572887 0.025253054 0.015274419
0.01038368 -0.035 0.015917214
-0.0022049695 -0.025793348 0.015952691
-0.0081055639 0.035 0.015939016
-0.012499999 0.026394514 0.016697913
0.005580863 -0.035 0.017565105
-0.0096087363 -0.035 0.018202083
-0.0057227709 -0.035 0.018463666
0.0053664129 -0.035 0.018257305
0.012499999 -0.030202072 0.018123928
-0.0067385286 0.027424261 0.018287187
0.0073561831 0.035 0.018493902
-0.0040209442 -0.035 0.018663846
-0.012499999 0.032526422 0.01850575
0.0081634708 0.035 0.018833762
0.0061335913 0.02813863 0.019407639
0.0064421622 -0.034999996 0.019962171
0.01015625 -0.035 0.019846652
-0.005245151 -0.02823887 0.019598516
0.00072659552 -0.028509866 0.02011456
-0.010259144 0.028558375 0.020206928
0.008331554 -0.035 0.020519901
0.0030282843 0.028745454 0.020563172
-0.0012035384 0.02912749 0.021290656
0.0033831811 -0.034893446 0.022
-0.012374179 -0.03361259 0.022
0.0018622293 -0.033939391 0.022
-0.012499999 -0.031610779 0.021933898
-0.0077929096 -0.031430151 0.022
-0.0097150262 0.031364948 0.022
0.010732481 0.031764619 0.022
-0.00096310955 0.034326777 0.022
