# .PCD v0.7 - Point Cloud Data file format
VERSION 0.7
FIELDS x y z
SIZE 4 4 4
TYPE F F F
COUNT 1 1 1
WIDTH 1287
HEIGHT 1
VIEWPOINT 0 0 0 1 0 0 0
POINTS 1287
DATA ascii
-0.00019143801 0.029704405 -0.003
0.0015543597 0.029783145 -0.003
-0.009783119 0.029810864 -0.003
-0.008102214 0.029869752 -0.003
0.0027650176 0.029800724 -0.003
0.0077772569 0.02989034 -0.003
-0.0085307807 0.029900968 -0.003
-0.0073232967 0.029946208 -0.003
-0.0043528695 0.029930521 -0.003
0.0026181201 0.029981235 -0.003
0.008089494 0.029926019 -0.003
0.0093073193 0.029946409 -0.003
-0.0039251358 0.030065894 -0.003
-0.001036304 0.030087486 -0.003
0.0061847814 0.030058526 -0.003
0.0091466699 0.030063175 -0.003
-0.011957656 0.030108599 -0.003
-0.0088880379 0.030174734 -0.003
-0.0086676925 0.03017935 -0.003
-0.0019703191 0.030123338 -0.003
-0.011925191 0.030201193 -0.003
-0.0031423089 0.03025513 -0.003
-0.00015816651 0.030275393 -0.003
0.0028155381 0.030269045 -0.003
0.0070517454 0.030256934 -0.003
-0.011341136 0.03039195 -0.003
-0.0088356119 0.030368969 -0.003
-0.0075666676 0.030307734 -0.003
0.001283722 0.030337058 -0.003
0.010320239 0.030347366 -0.003
-0.012470449 0.030473802 -0.003
-0.003073263 0.030418275 -0.003
0.011688016 0.030411601 -0.003
-0.0070609762 0.030548526 -0.003
-0.00447672 0.030512173 -0.003
-0.0016949633 0.030502696 -0.003
0.0014617695 0.030565538 -0.003
-0.00012036134 0.03064068 -0.003
0.0075483304 0.03060586 -0.003
0.01186127 0.030632693 -0.003
0.0098148268 0.030745964 -0.003
0.0032798722 0.030855088 -0.003
0.011380896 0.030896345 -0.003
-0.0087942053 0.030933805 -0.003
-0.0064848182 0.030946141 -0.003
-0.001808539 0.03097111 -0.003
0.0081625488 0.03092853 -0.003
-0.0090918113 0.031011645 -0.003
-0.0046936059 0.031065738 -0.003
0.0039318069 0.031055925 -0.003
0.0050792098 0.031043392 -0.003
0.0093274284 0.031012338 -0.003
-0.010303276 0.031187456 -0.003
-0.0041631069 0.031127498 -0.003
-0.00019221287 0.031127675 -0.003
0.0067147189 0.031184264 -0.003
-0.012499999 0.03120408 -0.0029890065
0.0063630813 0.031215409 -0.003
0.012071757 0.031205956 -0.003
-0.0056990287 0.031394623 -0.003
-0.010883501 0.03142703 -0.003
-0.00091218995 0.031412616 -0.003
0.0043524248 0.031453215 -0.003
-0.010819858 0.031605221 -0.003
-0.010775046 0.031657651 -0.003
-0.0045928583 0.031650081 -0.003
-0.0032767816 0.031647351 -0.003
0.0038275882 0.031782717 -0.003
0.0040255603 0.031766299 -0.003
0.0073513798 0.031746525 -0.003
0.010090489 0.03170491 -0.003
-0.011621387 0.031834733 -0.003
0.0038783234 0.031838499 -0.003
0.0071897861 0.03189078 -0.003
-0.0019558375 0.031992495 -0.003
0.0021073641 0.031965654 -0.003
-0.0023625474 0.03202967 -0.003
-0.0017507127 0.032022167 -0.003
0.0094897933 0.032014251 -0.003
0.0096905418 0.032041986 -0.003
0.010052884 0.032055352 -0.003
0.0069122338 0.032115418 -0.003
-0.012499999 0.032268528 -0.0029242595
-0.0086280797 0.032227125 -0.003
-0.0051400606 0.032210194 -0.003
0.0065542334 0.032233741 -0.003
0.010434046 0.032299541 -0.003
-0.0011432883 0.032377921 -0.003
0.0050368439 0.032368619 -0.003
0.01240713 0.032309834 -0.003
-0.0035336879 0.032423388 -0.003
0.00485426 0.032444946 -0.003
0.0096376166 0.032497354 -0.003
0.0015040562 0.032521769 -0.003
0.010113694 0.032501508 -0.003
-0.0062241131 0.032655429 -0.003
-0.0047931951 0.032699719 -0.003
0.011810325 0.032640189 -0.003
-0.007277444 0.032713793 -0.003
0.010339873 0.032755602 -0.003
-0.0025659059 0.032867663 -0.003
0.0044539794 0.032855913 -0.003
-0.0028137993 0.032909285 -0.003
0.0014419481 0.032925896 -0.003
0.0108102 0.032938447 -0.003
0.01153931 0.032995157 -0.003
-0.0064579262 0.033060811 -0.003
0.0079276711 0.03310959 -0.003
0.0090490859 0.033112615 -0.003
0.011360122 0.033165053 -0.003
-0.012278659 0.033227924 -0.003
-0.0013457928 0.033287246 -0.003
-0.00081221526 0.033285212 -0.003
0.006215381 0.033264853 -0.003
-0.00092618912 0.033311825 -0.003
0.012499999 0.033365205 -0.0029832318
-0.0038829767 0.033412501 -0.003
-0.0029187324 0.033432167 -0.003
0.0022954866 0.033482887 -0.003
0.0088592768 0.03348149 -0.003
0.010414492 0.033476658 -0.003
-0.0022307588 0.033578452 -0.003
0.0016483646 0.033590343 -0.003
0.0023025749 0.033531487 -0.003
0.0026427032 0.033517156 -0.003
0.011484502 0.033544887 -0.003
0.012388362 0.033530455 -0.003
-0.0041940506 0.033699766 -0.003
0.0054857247 0.033626042 -0.003
0.0093579907 0.033670161 -0.003
-0.012499999 0.033743028 -0.0029841664
-0.010522611 0.033725992 -0.003
-0.0045017204 0.03375886 -0.003
0.0035489365 0.033709541 -0.003
0.0054480382 0.033799157 -0.003
0.0080087427 0.033761013 -0.003
0.010995209 0.033761285 -0.003
-0.00087849563 0.03383714 -0.003
0.0011089519 0.033842944 -0.003
0.0015312703 0.0338502 -0.003
0.0029839827 0.033802599 -0.003
0.0038625952 0.033838119 -0.003
0.0045263884 0.033895738 -0.003
0.0086537953 0.033897381 -0.003
-0.0072737932 0.033935811 -0.003
-0.0054173972 0.033931211 -0.003
-0.004987448 0.0339485 -0.003
-0.0033703153 0.033932008 -0.003
-0.011018969 0.034030601 -0.0029999998
-0.0029187324 0.034031462 -0.003
0.00082784332 0.034003504 -0.003
0.0068364306 0.034023501 -0.003
0.0008034911 0.034120139 -0.003
0.0019128183 0.034235198 -0.003
0.0044528544 0.03420037 -0.003
0.010926917 0.03425733 -0.003
-0.011204443 0.034321494 -0.003
-0.0093205422 0.034331389 -0.003
-0.0061051934 0.034319147 -0.003
-0.0058493284 0.03439647 -0.003
-0.0056084841 0.034373436 -0.003
0.0027525183 0.03435225 -0.003
0.010475175 0.034344289 -0.003
-0.0045483578 0.034434009 -0.003
0.012063604 0.034450077 -0.003
0.012197958 0.034485057 -0.003
-0.012109375 0.034590978 -0.003
-0.0063701738 0.034560539 -0.003
0.00076831877 0.03451135 -0.003
-0.0065389671 0.034629691 -0.003
0.0024640486 0.034659874 -0.003
0.0031585335 0.034602612 -0.003
-0.011626535 0.034715038 -0.003
-0.0030017053 0.034728106 -0.003
0.0060875528 0.034882467 -0.003
0.0064297002 0.03485442 -0.003
-0.0098327138 0.034973104 -0.003
0.0024697827 0.034916855 -0.003
0.0046708458 0.034964789 -0.003
-0.011917063 0.035 -0.0029694629
-0.0072041131 0.035 -0.002976337
-0.0067334552 0.035 -0.0029614416
-0.0029302717 0.035 -0.0029984743
-0.0026281287 0.035 -0.0029908433
0.0077395472 0.035 -0.0029984743
-0.0081031453 -0.035 -0.0028416021
0.010907913 -0.035 -0.0028561123
0.012499999 -0.033520512 -0.0028155732
0.012499999 -0.032693457 -0.002821384
-0.012499999 -0.031320613 -0.0028616309
0.012499999 -0.027370617 -0.0028267326
-0.012499999 -0.023338137 -0.0028357168
0.012499999 -0.016364653 -0.0028531482
0.012499999 -0.015841551 -0.0028287231
-0.012499999 -0.014872043 -0.0028214995
-0.012499999 -0.0099451393 -0.0028829004
-0.012499999 -0.0066640354 -0.0028175986
0.012499999 -4.3470412e-05 -0.0028314367
0.012499999 0.0010389928 -0.0028282958
-0.012499999 0.0020401194 -0.0028110587
0.012499999 0.010205572 -0.0028198431
-0.012499999 0.012777928 -0.0028251058
-0.012499999 0.019411005 -0.0028916767
-0.012499999 0.026297862 -0.0028956267
0.012499999 0.028120993 -0.002822937
0.012499999 0.032295328 -0.0028663024
-0.0094221411 0.035 -0.0028473272
-0.0069682444 0.035 -0.0028273612
-0.0047967047 0.035 -0.0028446405
0.012499999 -0.030167919 -0.0027676313
-0.012499999 -0.029310599 -0.0027060332
-0.012499999 -0.025264347 -0.0027958038
0.012499999 -0.018989449 -0.0027278066
0.012499999 -0.017869905 -0.0027548852
-0.012499999 -0.017217888 -0.0027177504
0.012499999 -0.012517255 -0.0027069445
-0.012499999 -0.01078998 -0.0027829637
-0.012499999 -0.0086448099 -0.0027721606
-0.012499999 -0.0034340341 -0.0027464493
-0.012499999 -0.0027107093 -0.0027373598
0.012499999 -0.00071150996 -0.0027597272
0.012499999 0.0057602022 -0.0027908841
0.012499999 0.006734415 -0.0027679692
-0.012499999 0.0089065693 -0.002754539
-0.012499999 0.014285069 -0.0027421042
-0.012499999 0.028326115 -0.0027180482
0.012499999 0.029998103 -0.0027984499
-0.0057617547 0.035 -0.00277545
0.00065049861 0.035 -0.0027966127
0.0065830476 0.035 -0.0027835323
0.011831604 0.035 -0.0027946888
0.0017730189 -0.035 -0.0026525729
0.0043594167 -0.035 -0.0026889441
0.0075535579 -0.035 -0.0026495464
-0.012499999 -0.032718506 -0.0026278866
0.012499999 -0.029044164 -0.0026510335
0.012499999 -0.020311117 -0.0026943241
-0.012499999 -0.018762678 -0.0026468937
0.012499999 -0.013508305 -0.0026574815
0.012499999 -0.013030604 -0.0026223315
0.012499999 -0.012494353 -0.0026510046
-0.012499999 -0.0072528329 -0.0026468937
-0.012499999 -0.0048502274 -0.0026285916
0.012499999 -0.0039382903 -0.002600722
0.012499999 -0.0038887933 -0.0026132185
0.012499999 -0.0031477483 -0.002610791
-0.012499999 -0.0018171157 -0.0026014352
-0.012499999 -0.0008326915 -0.002694193
-0.012499999 0.0028273764 -0.0026863192
0.012499999 0.0037491089 -0.0026981283
0.012499999 0.013339559 -0.0026362659
-0.012499999 0.01526338 -0.0026438807
0.012499999 0.016359735 -0.0026102061
0.012499999 0.022156794 -0.002606706
-0.012499999 0.022861667 -0.0026394592
0.012499999 0.031721398 -0.0026092606
-0.0041932794 0.035 -0.0026062741
0.0073203831 0.035 -0.0026620224
-0.010733807 -0.035 -0.0025784073
-0.0074864686 -0.035 -0.0025662703
-0.0035059201 -0.035 -0.0025428028
0.0032540611 -0.035 -0.0025774769
-0.012499999 -0.032682151 -0.002543509
0.012499999 -0.0314386 -0.0025012631
0.012499999 -0.028847858 -0.002563532
-0.012499999 -0.028468091 -0.0025043939
0.012499999 -0.025708359 -0.0025090147
-0.012499999 -0.0079586497 -0.0025756764
0.012499999 -0.0029882677 -0.0025927087
-0.012499999 -0.00041001019 -0.0025761847
-0.012499999 0.0052090054 -0.0025942468
0.012499999 0.0052932734 -0.0025718319
0.012499999 0.0056149624 -0.0025053113
-0.012499999 0.0063367793 -0.0025361045
0.012499999 0.012387665 -0.002528979
-0.012499999 0.016995963 -0.0025140594
0.012499999 0.018763032 -0.002583564
0.012499999 0.021844473 -0.0025089241
0.012499999 0.023943476 -0.0025421174
-0.012499999 0.024646562 -0.0025604102
-0.012499999 0.025515053 -0.0025773025
0.012499999 0.030641653 -0.0025753505
0.012499999 0.031259052 -0.0025835542
-0.00079568801 0.035 -0.0025472923
-0.0078145079 -0.035 -0.0024590096
-0.0046556443 -0.035 -0.0024348691
-0.012499999 -0.032811169 -0.0024456191
0.012499999 -0.027600423 -0.0024601007
0.012499999 -0.021006625 -0.0024306159
0.012499999 -0.016065586 -0.0024847081
0.012499999 -0.010636219 -0.0024988928
-0.012499999 -0.0098560126 -0.0024717818
-0.012499999 -0.0093069999 -0.002454842
-0.012499999 -0.0051599336 -0.0024252236
-0.012499999 -0.0040344913 -0.0024589333
0.012499999 -0.0025288854 -0.0024288106
-0.012499999 -0.0021488219 -0.0024078735
0.012499999 -0.0013848022 -0.0024338996
0.012499999 0.00074344873 -0.0024041343
-0.012499999 0.0069267312 -0.0024529139
0.012499999 0.0088574653 -0.0024212156
-0.012499999 0.010381265 -0.0024544711
0.012499999 0.016026251 -0.0024368218
-0.012499999 0.016387803 -0.0024922383
-0.012499999 0.017408721 -0.0024127916
-0.012499999 0.017759126 -0.002401904
-0.012499999 0.020845236 -0.0024531216
0.012499999 0.022310501 -0.0024279614
0.012499999 0.026995614 -0.0024073771
0.012499999 0.031505659 -0.0024026898
-0.00040225207 0.035 -0.0024070307
0.0019984329 0.035 -0.0024234354
0.0096053323 0.035000004 -0.0024019508
0.0100262 0.035 -0.0024222641
-0.0043902835 -0.035 -0.0023078192
-0.012499999 -0.034597274 -0.0023020299
-0.012499999 -0.033586055 -0.0023339882
-0.012499999 -0.026950013 -0.0023142437
0.012499999 -0.022742989 -0.0023119566
-0.012499999 -0.021857781 -0.0023071067
-0.012499999 -0.015082995 -0.0023844817
-0.012499999 -0.0092852721 -0.0023148824
0.012499999 -0.006564389 -0.0023189713
0.012499999 -0.0049102204 -0.0023410462
-0.012499999 0.0031286727 -0.0023667947
0.012499999 0.005593393 -0.0023486484
-0.012499999 0.017308004 -0.002345135
-0.012499999 0.01819518 -0.0023197765
-0.012499999 0.019338677 -0.0023247723
0.012499999 0.022107646 -0.0023866908
0.012499999 0.023972336 -0.0023852754
0.012499999 0.024177004 -0.0023710316
-0.012499999 0.027747814 -0.0023514833
-0.012499999 0.029109852 -0.0023967668
-0.012499999 0.032028299 -0.0023685924
-0.0036745132 0.035 -0.0023510901
0.0018312202 0.035 -0.0023874864
0.0088474713 0.035 -0.0023173867
0.0092491629 0.035 -0.0023060113
-0.0052926233 -0.035 -0.0022307425
-0.0041065831 -0.035 -0.0022836749
-0.0016572904 -0.035 -0.0022660731
0.01227997 -0.035 -0.0022145978
-0.012499999 -0.028196599 -0.0022986794
-0.012499999 -0.027548056 -0.0022264668
-0.012499999 -0.020056818 -0.0022940871
0.012499999 -0.017615704 -0.0022301441
-0.012499999 -0.015629211 -0.002236302
0.012499999 -0.013684259 -0.0022532768
0.012499999 0.0050189039 -0.0022282982
-0.012499999 0.0062112305 -0.0022488127
-0.012499999 0.0064094998 -0.0022006603
-0.012499999 0.0077797724 -0.0022075032
0.012499999 0.014195634 -0.0022601329
-0.012499999 0.014937459 -0.0022436392
0.012499999 0.015214119 -0.0022500183
0.012499999 0.015434345 -0.0022486735
-0.012499999 0.017756453 -0.0022712823
-0.012499999 0.02094725 -0.0022518286
-0.012499999 0.023726076 -0.0022312247
0.012499999 0.030025698 -0.0022137552
-0.012397045 0.035 -0.0022706732
-0.011739503 0.035 -0.0022411854
0.0073218211 0.035 -0.0022403984
0.0018919548 -0.035000004 -0.0021393585
-0.0043746876 -0.035 -0.0021103749
-0.0034899283 -0.035 -0.0021380703
0.0023532896 -0.035 -0.0021822136
0.0087150028 -0.035 -0.0021281135
0.010414101 -0.035 -0.0021889452
0.012499999 -0.031510875 -0.0021892872
-0.012499999 -0.026894888 -0.0021765861
0.012499999 -0.025700629 -0.0021771037
-0.012499999 -0.025189297 -0.0021281121
0.012499999 -0.022535235 -0.0021712808
0.012499999 -0.02189271 -0.0021857515
0.012499999 -0.01517521 -0.0021614952
0.012499999 -0.014610837 -0.0021699623
-0.012499999 -0.011702036 -0.0021460394
0.012499999 -0.01165085 -0.0021679529
0.012499999 -0.0093278345 -0.002116147
0.012499999 -0.0088817505 -0.0021839933
-0.012499999 -0.0084093828 -0.002175167
0.012499999 -0.0061712805 -0.0021957308
0.012499999 0.0018378794 -0.002112482
0.012499999 0.0030403989 -0.0021832632
0.012499999 0.0072242115 -0.0021760722
-0.012499999 0.0078635439 -0.0021629219
-0.012499999 0.0087250536 -0.0021905429
0.012499999 0.0087917279 -0.0021190916
-0.012499999 0.010172536 -0.002101606
0.012499999 0.010892804 -0.0021508397
0.012499999 0.01163568 -0.0021818157
-0.012499999 0.012100924 -0.0021966374
0.012499999 0.012388303 -0.0021857854
0.012499999 0.0191953 -0.002172922
-0.012499999 0.021073654 -0.0021856402
-0.012499999 0.028255036 -0.0021059222
-0.012499999 0.032244254 -0.0021541954
0.012499999 0.032590371 -0.0021744689
-0.0085190358 0.035 -0.0021347299
-0.012428563 -0.035 -0.0020384754
0.00015783077 -0.035 -0.0020774442
0.0035421825 -0.035 -0.0020285244
0.012499999 -0.031754699 -0.0020422507
-0.012499999 -0.030147096 -0.002017135
-0.012499999 -0.026433526 -0.0020886359
0.012499999 -0.020641712 -0.0020236177
0.012499999 -0.017542524 -0.0020663138
-0.012499999 -0.012812591 -0.00206706
-0.012499999 -0.010549394 -0.0020871928
0.012499999 -0.0052693868 -0.0020169923
-0.012499999 -0.0050948607 -0.0020801942
0.012499999 -0.0027212724 -0.0020136475
-0.012499999 0.0017117169 -0.0020120542
0.012499999 0.002834877 -0.0020280355
0.012499999 0.0061436919 -0.0020288709
0.012499999 0.0064505814 -0.0020502221
-0.012499999 0.0074400934 -0.0020942935
0.012499999 0.024561003 -0.0020548822
0.012499999 0.028547244 -0.0020565849
-0.012499999 0.02980301 -0.0020866378
-0.012499999 0.030332765 -0.0020532119
0.012499999 0.031109927 -0.0020345161
-0.012499999 0.032148369 -0.0020607086
-0.0091651389 0.035 -0.0020432784
-0.0077284258 0.035 -0.0020805344
-0.0036442839 0.035 -0.0020079508
0.0019307078 0.035 -0.0020607247
0.0065651466 0.035 -0.0020520031
0.010710636 0.035 -0.002038121
-0.011829933 -0.035 -0.0019475508
-0.010882756 -0.035 -0.0019944902
-0.012499999 -0.034439307 -0.0019519448
-0.012499999 -0.032782283 -0.0019864617
-0.012499999 -0.032379333 -0.0019450786
-0.012499999 -0.032188665 -0.0019646976
0.012499999 -0.029429488 -0.0019467354
-0.012499999 -0.023542332 -0.0019749836
0.012499999 -0.023059871 -0.0019301139
-0.012499999 -0.021769091 -0.0019651062
0.012499999 -0.018385928 -0.0019874729
0.012499999 -0.013570025 -0.0019180254
0.012499999 -0.012589337 -0.0019331785
0.012499999 -0.0080705602 -0.0019058735
-0.012499999 -0.0014855379 -0.0019134823
-0.012499999 0.0018536751 -0.0019920825
-0.012499999 0.008518788 -0.0019402727
0.012499999 0.011785254 -0.0019656103
-0.012499999 0.014034659 -0.0019486018
0.012499999 0.015287394 -0.0019678802
-0.0080590239 0.035 -0.0019502817
-0.0078586377 0.035 -0.0019924534
-0.0061228755 0.035 -0.0019227921
-0.011139062 -0.035 -0.0018928865
-0.0042593088 -0.035 -0.0018879487
0.00010226527 -0.035 -0.00181263
0.0081226565 -0.035 -0.0018220843
0.0091789244 -0.035 -0.001809821
0.010680655 -0.035 -0.0018508503
-0.012499999 -0.03404966 -0.0018337296
0.012499999 -0.033137716 -0.001854539
0.012499999 -0.03048542 -0.0018241799
0.012499999 -0.01946318 -0.0018016612
-0.012499999 -0.016950963 -0.0018139116
-0.012499999 -0.01277524 -0.001802661
0.012499999 -0.0079968031 -0.0018028039
0.012499999 -0.0077892561 -0.0018611136
-0.012499999 0.0013377373 -0.0018086408
-0.012499999 0.001644736 -0.001888051
0.012499999 0.0021168245 -0.0018722548
-0.012499999 0.0026157014 -0.0018769647
-0.012499999 0.008537041 -0.0018773115
-0.012499999 0.011976287 -0.001843791
-0.012499999 0.017055806 -0.00187708
-0.012499999 0.018407071 -0.0018709493
0.012499999 0.028399652 -0.0018340927
-0.011003121 0.035000004 -0.0018221213
-0.011439528 -0.035 -0.0017736881
-0.0012879591 -0.035 -0.0017723773
0.0067559616 -0.035 -0.0017713539
0.007837005 -0.035 -0.0017938617
0.0099381628 -0.034999996 -0.0017394953
0.010507281 -0.035 -0.0017099576
0.012103284 -0.035 -0.0017279646
0.012499999 -0.031250935 -0.0017994812
-0.012499999 -0.030578915 -0.0017529252
0.012499999 -0.022750976 -0.0017431239
-0.012499999 -0.022617124 -0.0017139979
0.012499999 -0.01521609 -0.001760099
0.012499999 -0.01480201 -0.0017636733
0.012499999 -0.007553461 -0.0017583724
0.012499999 -0.0058603082 -0.0017188438
0.012499999 -0.0043929853 -0.0017398304
-0.012499999 -0.0020628462 -0.0017880911
0.012499999 0.00074555352 -0.0017815395
-0.012499999 0.001228824 -0.0017869141
-0.012499999 0.010140589 -0.0017999616
0.012499998 0.017935492 -0.0017143018
0.012499999 0.022118315 -0.0017094791
0.0125 0.023253053 -0.001763311
-0.012499999 0.023837695 -0.0017339041
0.012499999 0.02618406 -0.0017713169
-0.012499999 0.027431982 -0.0017758384
0.0046678353 0.035 -0.001767613
-0.0078567145 -0.035 -0.0016915479
-0.012499999 -0.034884896 -0.0016912308
0.012499999 -0.034365643 -0.0016128605
-0.012499999 -0.031311717 -0.0016719432
-0.012499999 -0.019009644 -0.0016649009
-0.012499999 -0.017625572 -0.001689811
-0.012499999 -0.012881079 -0.0016634532
-0.012499999 -0.011600555 -0.0016960485
-0.012499999 -0.0013714818 -0.0016768305
0.012499999 -0.00076819118 -0.0016389319
0.012499999 -0.00025377143 -0.0016022315
-0.012499999 0.0025043644 -0.0016868096
-0.012499999 0.0069128159 -0.0016484654
0.012499999 0.0069833733 -0.0016495989
-0.012499999 0.0074794595 -0.001663815
0.012499999 0.0081940973 -0.0016978502
-0.012499999 0.012718423 -0.0016840461
0.012499999 0.014914434 -0.0016442686
-0.012499999 0.01720845 -0.0016477392
0.012499999 0.019452315 -0.0016848062
0.012499999 0.020084735 -0.0016074594
-0.012499999 0.025405262 -0.0016148168
0.012499999 0.026239781 -0.0016637994
-0.012499999 0.028209606 -0.0016450974
-0.012499999 0.030479617 -0.001624556
0.012499999 0.031413805 -0.0016741947
-0.009120035 0.035 -0.001635234
0.010717948 0.035 -0.0016856178
-0.0087472387 -0.035 -0.0015842551
-0.0071082111 -0.035 -0.0015846568
-0.0052145869 -0.035 -0.0015381222
0.0039298283 -0.035 -0.0015158455
0.0090204906 -0.035 -0.0015577895
0.010579794 -0.035 -0.0015599226
0.011732175 -0.035 -0.0015798014
0.012150927 -0.035 -0.0015168783
0.012499999 -0.028742848 -0.0015464962
0.012499999 -0.028379509 -0.001524689
-0.012499999 -0.026399022 -0.0015543411
-0.012499999 -0.020758016 -0.0015885369
0.012499999 -0.01930305 -0.0015529112
-0.012499999 -0.015230052 -0.0015892722
0.012499999 -0.011179804 -0.0015399259
-0.012499999 -0.0071815592 -0.0015880466
0.012499999 0.0077521196 -0.0015813744
-0.012499999 0.010380374 -0.0015724533
-0.012499999 0.010834798 -0.0015777386
0.0125 0.026775358 -0.0015338351
-0.012499999 0.027067438 -0.0015245589
0.012499999 0.027134417 -0.0015857301
-0.012499999 0.027780486 -0.0015988984
0.0125 0.031417076 -0.0015961824
0.012499999 0.032189604 -0.0015095052
-0.012499999 0.03410431 -0.001533891
-0.0050304849 0.035 -0.0015369802
-0.00015761255 0.035 -0.0015794858
0.011983956 -0.035 -0.0014261069
0.012499999 -0.019315105 -0.001477223
-0.012499999 -0.013803069 -0.0014112112
0.012499999 -0.011999486 -0.0014190008
0.012499999 -0.0093134316 -0.0014121396
0.012499999 -0.0053540654 -0.0014695791
0.012499999 -0.0042878566 -0.0014389418
-0.012499999 -0.0012433004 -0.0014426683
0.012499999 0.0010394491 -0.0014579229
-0.012499999 0.0187514 -0.001453275
-0.012499999 0.023068607 -0.0014188413
-0.012499999 0.024347197 -0.0014854522
0.012499999 0.026095847 -0.001483522
0.012499999 0.026768286 -0.0014894941
-0.012499999 0.030649571 -0.0014165265
-0.012499999 0.034790725 -0.0014149579
-0.011261786 0.035 -0.001480186
-0.0052743391 0.035 -0.0014635278
0.0059059896 0.035 -0.0014899311
0.0072010588 0.035 -0.0014964266
-0.003267823 -0.035 -0.0013904973
0.012499999 -0.03410475 -0.0013182656
-0.012499999 -0.029879112 -0.0013991287
0.012499999 -0.023836168 -0.0013097696
-0.012499999 -0.020382697 -0.0013270793
0.012499999 -0.016496766 -0.0013436967
-0.012499999 -0.011005484 -0.0013891398
0.012499999 -0.009095001 -0.0013099168
0.012499999 -0.004675799 -0.0013474264
-0.012499999 -0.0017522145 -0.0013189046
-0.012499999 0.0029226597 -0.0013491934
-0.012499999 0.0033849129 -0.0013424801
-0.012499999 0.0048508272 -0.0013488065
-0.012499999 0.011290575 -0.001375179
-0.012499999 0.01420536 -0.001318645
0.012499999 0.025237951 -0.0013740663
-0.012499999 0.0258814 -0.0013905464
-0.012499999 0.028468912 -0.0013189098
0.012499999 0.032858022 -0.0013555862
-0.0022118124 0.034999996 -0.0013853594
-0.0099975029 0.035 -0.0013490348
-0.0071282061 0.035 -0.0013142928
0.0017334113 0.035 -0.0013984053
-0.0064336378 -0.035 -0.0012309735
0.012499999 -0.031458989 -0.0012242565
0.012499999 -0.029372891 -0.0012429248
-0.012499999 -0.02871836 -0.0012696683
0.012499999 -0.027936706 -0.0012986551
-0.012499999 -0.024785623 -0.0012595535
-0.012499999 -0.015237755 -0.0012368609
-0.012499999 -0.01095776 -0.0012339499
0.012499999 -0.0092372857 -0.0012473005
-0.012499999 -0.009127642 -0.001211392
-0.012499999 -0.00027785602 -0.0012785946
-0.012499999 0.00047548546 -0.0012500682
-0.012499999 0.0021231668 -0.0012188354
-0.012499999 0.017349515 -0.0012336855
-0.012499999 0.020796984 -0.0012365964
0.012499999 0.028778849 -0.0012919357
-0.012499999 0.031583872 -0.0012709987
0.012499999 0.033064757 -0.0012415732
-0.011309409 0.035 -0.0012360319
-0.001807509 0.035 -0.0012311056
-0.001392243 0.035 -0.0012782677
-0.012499999 -0.028683417 -0.0011910115
0.012499999 -0.027553333 -0.0011623956
-0.012499999 -0.026130646 -0.0011178956
0.012499999 -0.020851601 -0.0011886384
0.012499999 -0.012691692 -0.0011728255
0.012499999 -0.0038992539 -0.0011813808
-0.012499999 -0.00054415187 -0.0011975348
0.012499999 -0.00014280435 -0.0011585441
-0.012499999 0.0014312514 -0.0011801518
0.012499999 0.0095377406 -0.0011862958
-0.012499999 0.012156824 -0.0011016057
0.012499999 0.015805556 -0.0011856994
0.0075633018 0.035 -0.0011752081
0.0081086475 0.035 -0.0011133999
-0.0084047923 -0.035 -0.0010223686
0.00033108797 -0.035 -0.00107728
0.0037888987 -0.035 -0.0010625389
0.0064355964 -0.035 -0.0010971848
-0.012499999 -0.018096378 -0.0010801333
-0.012499999 -0.016337173 -0.0010795852
-0.012499999 -0.015921442 -0.0010709373
0.012499999 -0.015388761 -0.0010162133
0.012499999 -0.012088438 -0.0010045643
-0.012499999 -0.011109067 -0.0010738217
0.012499999 0.002603434 -0.0010408306
-0.012499999 0.0047488948 -0.0010746458
0.012499999 0.0076421658 -0.0010750392
0.012499999 0.0080971252 -0.001084823
0.012499999 0.022160966 -0.001006751
-0.012499999 0.030029807 -0.001070909
-0.012499999 0.030841215 -0.001066924
-0.012499999 0.031274769 -0.0010146337
-0.0099738035 0.034999996 -0.0010323882
-0.010715125 0.035 -0.0010625944
-0.0076125851 0.035 -0.0010997801
-0.0036629639 0.035 -0.0010257615
0.0062941969 0.035 -0.0010017274
0.0085651902 0.035 -0.0010195479
0.0030611567 -0.035 -0.00090713246
0.0033314382 -0.035 -0.00094446389
0.0083605526 -0.035 -0.00091850595
0.010973226 -0.035 -0.00098412437
-0.012499999 -0.028611287 -0.00090810528
0.012499999 -0.027911253 -0.00099026505
0.012499999 -0.025682118 -0.00097438134
0.012499999 -0.023132324 -0.00096248667
0.012499999 -0.02306444 -0.00097274769
0.012499999 -0.022605598 -0.00090876402
0.012499999 -0.020905403 -0.0009996111
0.012499999 -0.019821193 -0.00094730104
0.012499999 -0.012003771 -0.00091100571
0.012499999 -0.0091494909 -0.00099940877
0.012499999 -0.0084285866 -0.00097037567
-0.012499999 -0.0038644755 -0.00091859256
0.012499999 -0.0013991781 -0.00095853151
-0.012499999 0.00425677 -0.00099468639
0.012499999 0.0052643735 -0.00097261113
0.012499999 0.0056632394 -0.00094322313
-0.012499999 0.0090538412 -0.00092585245
0.012499999 0.012084581 -0.00092784787
0.012499999 0.013901995 -0.00098881638
0.012499999 0.014106152 -0.00092611858
-0.012499999 0.014974981 -0.00099580525
0.012499999 0.015572581 -0.00092789851
0.012499999 0.015693225 -0.00091546209
-0.012499999 0.017431751 -0.00091131998
-0.012499999 0.025768252 -0.00097579515
0.012499999 0.027945802 -0.00098152121
-0.012499999 0.030064782 -0.00095731247
-0.012499999 0.030312151 -0.00091837731
-0.012499999 0.03079615 -0.00094802317
-0.012499999 0.033358399 -0.00091799989
-0.0121877 0.035 -0.00094485586
-0.0010031975 0.035 -0.00094319286
-0.00024175545 0.035 -0.00093861972
0.005007606 0.035 -0.00090908248
0.0084142908 0.035 -0.00095108885
0.011306502 0.035 -0.00097900082
-0.0073950454 -0.035 -0.00089744618
0.012499999 -0.031832185 -0.00082712353
0.012499999 -0.027624039 -0.00080468913
0.012499999 -0.024305167 -0.00082822912
-0.012499999 -0.02383291 -0.00086283032
0.012499999 -0.018159622 -0.0008268872
0.012499999 -0.015289121 -0.00082363235
0.012499999 -0.014997414 -0.00085485785
-0.012499999 -0.011218166 -0.00089558959
0.012499999 -0.0075036576 -0.00087255856
-0.012499999 0.0059111076 -0.00087893533
0.012499999 0.012154672 -0.00083246396
0.012499999 0.01661253 -0.0008877017
0.012499999 0.017411878 -0.00088919507
-0.012499999 0.02000099 -0.00089530298
0.012499999 0.022865839 -0.00086858415
0.012499999 0.023570284 -0.00088768045
0.012499999 0.025260381 -0.00086718972
-0.012499999 0.029215863 -0.00089507434
-0.0077033564 0.035 -0.00087200233
-0.0018454834 0.035 -0.00087408721
0.010898404 0.035 -0.00083143939
-0.011100102 -0.035 -0.00070343155
-0.0028025501 -0.035 -0.00073365052
-0.0016676532 -0.035 -0.00071612548
0.001053751 -0.035 -0.00075903634
0.0022187703 -0.035 -0.00070440769
-0.012499999 -0.031143693 -0.00075352774
0.012499999 -0.029963508 -0.00070369244
0.012499999 -0.027558191 -0.00077452848
0.012499999 -0.027148439 -0.00072541396
0.012499999 -0.022585971 -0.00077520614
-0.012499999 -0.019806169 -0.0007416876
0.012499999 -0.016267007 -0.00072717189
-0.012499999 -0.011437418 -0.0007887457
-0.012499999 -0.0048815249 -0.00073781528
0.012499999 0.012964441 -0.00071388821
-0.012499999 0.01715597 -0.00074689439
-0.012499999 0.019660912 -0.00074626325
-0.012499999 0.024180911 -0.00079965929
0.012499999 0.026346218 -0.00071011856
0.0125 0.028364561 -0.00073676091
-0.012499999 0.030961394 -0.00072588114
-0.012499999 0.034425922 -0.00070622796
-0.012499999 0.034595679 -0.00078997895
-0.0048883301 0.035 -0.00073440815
-0.00018455269 0.035 -0.00072895433
-0.0019782432 -0.035 -0.00060206675
-0.0018978119 -0.035 -0.00069145579
0.0041869665 -0.035 -0.00060374429
0.0064540873 -0.035 -0.00062705937
-0.012499999 -0.034307208 -0.00069005095
-0.012499999 -0.031202896 -0.00064673065
0.012499999 -0.026486315 -0.00066208321
-0.012499999 -0.023850296 -0.00068430667
-0.012499999 -0.01294626 -0.00068274408
0.012499999 -0.0072619696 -0.0006484983
-0.012499999 -0.00621258 -0.00063912803
0.012499999 -0.0025402168 -0.00067426439
0.012499999 0.0026907967 -0.00067567232
-0.012499999 0.004444785 -0.00064752472
0.012499999 0.0048226612 -0.00069203402
-0.012499999 0.0053932504 -0.00066471903
-0.012499999 0.0075656711 -0.0006925544
-0.012499999 0.011158846 -0.00060443103
0.012499999 0.01690468 -0.00065350125
0.012499999 0.017664082 -0.00068117189
-0.012499999 0.019560628 -0.00066487107
0.012499999 0.034543537 -0.00062793796
-0.011015627 0.035 -0.00068653654
-0.0046766549 0.035 -0.00060230633
0.00092525699 0.035 -0.0006086349
0.0046125781 0.035000004 -0.00061706896
0.0099487603 0.035 -0.00067434297
-0.007343288 -0.035 -0.0005233353
0.0023844994 -0.035 -0.0005652479
0.0027311586 -0.034999996 -0.00054034335
0.012499999 -0.032286912 -0.00059477682
-0.012499999 -0.03141332 -0.00057002582
-0.012499999 -0.027909096 -0.00058985176
0.012499999 -0.026361566 -0.00054415228
0.012499999 -0.025085062 -0.00052608049
-0.012499999 -0.023930602 -0.00051151786
0.012499999 -0.020508463 -0.00054687384
0.012499999 -0.014064034 -0.00053545384
0.012499999 -0.0076023377 -0.00055580289
-0.012499999 -0.0028258828 -0.00052746583
0.012499999 0.0039916271 -0.00059291068
-0.012499999 0.0092555108 -0.00058820238
-0.012499999 0.014129691 -0.00052652112
-0.012499999 0.019767502 -0.00053265668
-0.012499999 0.022243196 -0.00050928432
0.012499999 0.023222322 -0.00053018099
0.0029544313 0.035 -0.00054823468
0.007441333 0.035 -0.00056345458
0.0084815705 0.035 -0.00053808093
0.0077704517 -0.035000004 -0.00040337676
-0.011325322 -0.035 -0.00043512532
-0.010723716 -0.035 -0.00041221827
-0.0090424428 -0.035 -0.00046745327
-0.0086365575 -0.035 -0.00044973407
-0.0080373315 -0.035 -0.00044622261
-0.005241157 -0.035 -0.00049732102
0.0062065595 -0.035 -0.00040296582
0.0093371188 -0.035 -0.00047361897
0.012325568 -0.035 -0.00044354564
0.012499999 -0.02799019 -0.00048851682
-0.012499999 -0.022339255 -0.00041054963
-0.012499999 -0.021790128 -0.00040013297
-0.012499999 -0.019124083 -0.00049950008
0.012499999 -0.017928207 -0.00040818771
0.012499999 -0.013555105 -0.00049967208
-0.012499999 -0.012390384 -0.00047770864
0.012499999 -0.0077923429 -0.00046867691
-0.012499999 -0.0031336974 -0.00049187988
0.012499999 -0.0025885692 -0.00041570031
0.012499999 -0.0016731247 -0.00047328579
-0.012499999 -0.0010308606 -0.00043744594
-0.012499999 0.0044770059 -0.00043228094
0.012499999 0.0044219401 -0.00048545661
0.012499999 0.0073040426 -0.00044793327
-0.012499999 0.010960291 -0.00042111869
0.012499999 0.011575961 -0.00045958528
-0.012499999 0.020687684 -0.00044863101
0.012499999 0.021302013 -0.00048550451
0.012499999 0.021468395 -0.00044647849
0.012499999 0.024464423 -0.00040162052
-0.012499999 0.025457477 -0.00047476159
-0.012499999 0.027205005 -0.00044043455
-0.012499999 0.027547725 -0.00049684523
-0.012499999 0.030409873 -0.00042930606
-0.012499999 0.0308451 -0.00044689409
-0.0089558382 0.035 -0.0004893674
-0.0046066241 0.035 -0.00045032054
0.0041992115 0.035000004 -0.00046857866
0.0043138135 0.035 -0.0004311963
0.0051517244 0.035 -0.00048618612
-0.008428067 -0.035 -0.00032230804
-0.0059446939 -0.035 -0.00032157762
-0.012499999 -0.034558695 -0.00038389314
0.012499999 -0.031870294 -0.00034379988
-0.012499999 -0.028311409 -0.0003345806
0.012499999 -0.024109021 -0.00036365108
0.012499999 -0.023299862 -0.00032403087
-0.012499999 -0.021399878 -0.00032520446
-0.012499999 -0.015915694 -0.00038316881
0.012499999 -0.010286005 -0.00030611112
-0.012499999 0.0054676146 -0.00033735821
0.012499999 0.0054093516 -0.00033589773
0.012499999 0.0061334348 -0.00039362418
0.012499999 0.007912308 -0.00033567828
-0.012499999 0.0083502261 -0.00033503538
-0.012499999 0.011680258 -0.00039559137
0.012499999 0.021238824 -0.00031353172
0.012499999 0.025051877 -0.00037072564
-0.012499999 0.02641366 -0.00035464947
0.012499999 0.026877889 -0.00037986471
0.012499999 0.026910812 -0.00037614664
-0.012499999 0.027515667 -0.00030913018
0.012499999 0.031057058 -0.0003349469
-0.0093012657 0.034999996 -0.00038225041
-0.0079879155 0.035 -0.00034088199
0.0015874855 0.035 -0.00037500542
-0.011162654 -0.035 -0.00020540296
0.012442592 -0.035 -0.00027463376
-0.012499999 -0.031832144 -0.00027693436
0.012499999 -0.031835601 -0.00028805478
-0.012499999 -0.031728081 -0.0002920418
0.012499999 -0.02491644 -0.00024339068
-0.012499999 -0.020714959 -0.00029269652
-0.012499999 -0.020415116 -0.00020014029
-0.012499999 -0.01669818 -0.00023657933
0.012499999 -0.01096162 -0.00021556723
-0.012499999 -0.0094479518 -0.00029111537
0.012499999 -0.0085958522 -0.00028942476
0.012499999 -0.0027457718 -0.0002181108
0.012499999 0.0042467383 -0.00021397689
-0.012499999 0.0057395604 -0.00026073516
-0.012499999 0.0099195736 -0.00020778005
0.012499999 0.011083545 -0.00022591476
-0.012499999 0.013753583 -0.00022563676
-0.012499999 0.021218995 -0.00022808771
0.012499998 0.028636487 -0.0002862995
-0.01157124 0.035 -0.00024677045
-0.0090554385 0.035 -0.00028018351
-0.0034038443 0.035 -0.00029173656
0.010334862 0.035 -0.00027806766
-0.005287691 -0.035 -0.00013622199
-0.0050761895 -0.035 -0.00016159372
0.0037743154 -0.035 -0.00012306997
0.0083151925 -0.035 -0.00016305759
0.010042798 -0.035 -0.00017112051
0.010127078 -0.035 -0.0001230468
-0.012499999 -0.0266183 -0.00017050235
-0.012499999 -0.025288714 -0.00010847428
-0.012499999 -0.025093906 -0.00013922376
0.012499999 -0.019186093 -0.00012292794
-0.012499999 -0.017557817 -0.00010465458
0.012499999 -0.0099392831 -0.00013624766
0.012499999 -0.007458793 -0.00010381834
-0.012499999 -0.0067991694 -0.00011281006
0.012499999 -0.0042422856 -0.00015377317
0.012499999 -0.0033165412 -0.00011899142
0.012499999 0.0075503946 -0.00018082955
0.012499999 0.011626374 -0.00018720422
-0.012499999 0.020719107 -0.00019476702
0.012499999 0.029530872 -0.00017430005
-0.0022313553 0.035 -0.00016474258
-0.010871897 -0.035 -6.4503518e-05
-0.0071481341 -0.035 -1.6312493e-05
0.0059579606 -0.035 -7.592875e-05
-0.012499999 -0.033293683 -2.0059582e-05
0.012499999 -0.0329208 -7.8238081e-05
0.012499999 -0.032366011 -2.6147405e-05
0.012499999 -0.030020803 -1.0678457e-05
-0.012499999 -0.02788724 -3.4533208e-05
-0.012499999 -0.01766046 -1.9963249e-05
0.012499999 -0.012507485 -6.4945911e-05
-0.012499999 -0.0049903812 -5.9435493e-05
-0.012499999 -0.0037626228 -8.1676175e-05
-0.012499999 -0.0032139041 -3.6136247e-05
0.012499999 -0.0019449899 -5.0365285e-05
0.012499999 -0.0003230758 -5.7837402e-05
0.012499999 0.0040950947 -5.4954493e-05
0.012499999 0.0062619559 -8.7866327e-05
0.012499999 0.0092033986 -1.0126154e-05
-0.012499999 0.0094993813 -5.2769785e-05
0.012499999 0.011549233 -8.2958257e-05
-0.012499999 0.016096789 -7.2367722e-05
0.012499999 0.016055172 -7.7547738e-06
-0.012499999 0.017290842 -9.9147088e-05
-0.012499999 0.026970755 -9.7779674e-05
0.012499999 0.027918234 -2.3083761e-05
0.012499999 0.029758625 -3.2262411e-05
0.012499999 0.031660467 -2.5758985e-05
-0.0096993111 0.035 -6.0804188e-05
-0.0083549554 0.035 -3.8745813e-05
-0.01043155 -0.035 8.878042e-05
0.001310227 -0.035 5.8001722e-05
0.0038177979 -0.035 8.1221573e-05
0.012046298 -0.035 1.8249266e-05
-0.012499999 -0.032189749 9.6122385e-05
-0.012499999 -0.030898193 1.6505946e-05
-0.012499999 -0.030159498 8.8184606e-05
-0.012499999 -0.026782369 2.6862836e-06
0.012499999 -0.025215151 4.099065e-05
-0.012499999 -0.022380024 7.3178526e-05
-0.012499999 -0.016589448 5.5425917e-05
-0.012499999 -0.012956346 2.7569477e-05
0.012499999 -0.0090293484 5.5639481e-05
0.012499999 -0.0076027568 3.4640456e-05
-0.012499999 -0.0068989997 2.8494163e-05
0.012499999 -0.0054374663 9.8268094e-05
0.012499999 -0.0053587286 5.8753241e-05
0.012499999 -0.0028492706 1.1983793e-06
0.012499999 0.0074791629 9.3646813e-06
-0.012499999 0.008707772 4.1281339e-05
0.012499999 0.014718477 8.3880848e-05
0.012499999 0.016179314 3.2732729e-05
-0.012499999 0.016471757 6.6076289e-05
-0.012499999 0.024996081 4.7729147e-05
-0.012499999 0.028072521 8.6692628e-05
-0.012499999 0.028789409 6.3241438e-05
-0.01235133 0.035 5.5791577e-05
-0.0092996564 0.035 8.8410219e-05
-0.0098263621 -0.035 0.00016079913
-0.0092928363 -0.035 0.00013151737
0.00075033261 -0.035 0.00017737097
0.0078295218 -0.035 0.00011634501
0.012499999 -0.029997671 0.00017657143
0.012499999 -0.02848872 0.00014984503
-0.012499999 -0.024209643 0.00013245556
-0.012499999 -0.023708258 0.00016739138
-0.012499999 -0.023024473 0.00010286679
-0.012499999 -0.010798347 0.00017657643
-0.012499999 -0.0091714505 0.00012197462
0.012499999 0.0042216261 0.0001006244
-0.012499999 0.0077317697 0.00010676763
-0.012499999 0.0095316321 0.00011911755
-0.012499999 0.010587042 0.00019662397
0.012499999 0.017680818 0.00017842324
0.012499999 0.020183157 0.00018658326
-0.012499999 0.028108774 0.00015602785
0.012499999 0.028790958 0.00017570006
0.012499999 0.031299289 0.00014996249
-0.00035787781 0.035 0.00014244602
0.0064990581 0.035 0.00011889799
0.0068095196 0.035 0.00013633817
0.0071067847 0.035 0.00016863947
-0.0069040274 -0.035 0.00027830596
-0.0062232241 -0.035 0.00028260858
0.0011520716 -0.035 0.00027509697
0.0058757458 -0.035 0.0002404775
0.010329583 -0.035 0.00020688749
0.012499999 -0.028699614 0.00020823162
-0.012499999 -0.027503364 0.0002542485
0.012499999 -0.026830673 0.00024558068
-0.012499999 -0.014270848 0.00028039585
-0.012499999 -0.013858355 0.00029974396
0.012499999 -0.0057546739 0.00021589809
-0.012499999 -0.0014317493 0.00029913732
-0.012499999 -0.0006945731 0.0002898525
0.012499999 0.003163829 0.00027721096
0.012499999 0.005359449 0.0002792608
-0.012499999 0.0071402863 0.00024624495
0.012499999 0.012264115 0.00020539726
-0.012499999 0.020575901 0.00024995697
-0.012499999 0.023159826 0.00024173222
0.012499999 0.024645366 0.00022403465
-0.012499999 0.034373432 0.00026771496
0.0020484235 0.035 0.00023382599
0.0064865015 0.035 0.0002290071
0.010577887 0.035 0.00021024153
-0.0094798151 -0.035 0.00036026444
-0.0073734224 -0.035 0.00036507135
-0.0012513059 -0.035 0.00032150856
0.0029732261 -0.035 0.00030824461
0.0043940218 -0.035 0.00037766597
0.0087177958 -0.035 0.00034870859
-0.012499999 -0.028705187 0.00036974763
-0.012499999 -0.027671518 0.00033044862
0.012499999 -0.023925466 0.00033571769
-0.012499999 -0.01814279 0.00034357072
0.012499999 -0.0045289719 0.00038855299
-0.012499999 0.001407198 0.00039995054
0.012499999 0.0020453329 0.00030650996
-0.012499999 0.0029625266 0.00039869442
0.012499999 0.0045611048 0.00035284134
0.012499999 0.0082427021 0.00031306979
-0.012499999 0.014354717 0.00034848228
0.012499999 0.01820449 0.00030429114
0.012499999 0.028252063 0.0003654256
0.012499999 0.029713929 0.00030228612
-0.012499999 0.032546688 0.00038619654
0.012499999 0.033536263 0.00038462481
-0.0094091604 0.035 0.00034496048
-0.009225742 0.035 0.00030316273
0.0034556985 -0.035 0.00047475693
0.012499999 -0.034790635 0.00045868428
0.012499999 -0.032943998 0.00047664694
0.012499999 -0.021372318 0.00047494995
-0.012499999 -0.010392584 0.00047768152
0.012499999 -0.0059171109 0.00048033282
0.012499999 -0.0032771709 0.00042689772
-0.012499999 -0.00065988093 0.00046714698
-0.012499999 -0.00044786051 0.00041970739
0.012499999 0.0087066498 0.00043867785
0.012499999 0.01142998 0.00042865041
-0.012499999 0.017597834 0.00041480374
0.012499999 0.01753111 0.00040466094
0.012499999 0.026302647 0.00047000649
-0.0073135225 0.035 0.00042172545
-0.0058368035 0.035 0.00043985271
-0.0039324192 0.035 0.00049211085
0.006780135 0.035 0.00049654557
-0.011519864 -0.035 0.00056919106
-0.0038623803 -0.035 0.00053602329
0.0029578302 -0.035 0.0005072779
0.0053992979 -0.035 0.00053979747
0.0077362475 -0.035 0.00056284014
-0.012499999 -0.033966541 0.00058450096
-0.012499999 -0.017760849 0.00055711088
-0.012499999 -0.014801927 0.00054132228
-0.012499999 -0.012780915 0.00050126261
-0.012499999 0.002333184 0.00053823658
0.012499999 0.0052135959 0.00055779616
0.012499999 0.0072460594 0.00054796279
-0.012499999 0.0080212522 0.00055591844
0.012499999 0.010937739 0.0005344915
-0.012499999 0.012521724 0.00056992692
0.012499999 0.013674166 0.00055347744
-0.012499999 0.015131119 0.00057337538
0.012499999 0.01620196 0.0005337795
-0.012499999 0.019249689 0.00050545466
-0.012499999 0.023699656 0.00059809908
-0.011112627 -0.035 0.00064068928
0.0056943092 -0.035 0.00068588182
0.0065934923 -0.035 0.00067774649
0.0096692862 -0.035 0.00067351572
-0.012499999 -0.03173171 0.00064399408
0.012499999 -0.031400472 0.00063149451
0.012499999 -0.028197713 0.00060257816
0.012499999 -0.023217538 0.00062212336
-0.012499999 -0.022412395 0.00068888412
-0.012499999 -0.022308642 0.00063906179
0.012499999 -0.018857863 0.00063117058
-0.012499999 -0.017176762 0.00069862988
0.012499999 -0.01686289 0.00060594385
-0.012499999 -0.013711038 0.00063974154
-0.012499999 -0.010165878 0.00064478465
-0.012499999 -0.0026370466 0.00067571923
0.012499999 0.00097642886 0.00069642894
0.012499999 0.0018382855 0.0006231392
0.012499999 0.0035782433 0.00061726297
0.012499999 0.0067255166 0.00069108023
-0.012499999 0.022515738 0.00068113173
-0.012499999 0.023715129 0.00062947418
0.012499999 0.024994723 0.00061056623
0.012499999 0.026393261 0.00067073945
-0.012499999 0.028227536 0.00064863113
-0.012210735 0.035 0.00069974083
-0.0095912842 0.035 0.00068676192
0.012113249 0.035 0.00065043988
0.010470317 -0.035000004 0.0007411323
-0.00071651395 -0.035 0.00070988032
0.0063496972 -0.035 0.00075109804
0.010127853 -0.034999996 0.00073586009
-0.012499999 -0.031647988 0.00077138026
-0.012499999 -0.030888814 0.00075043377
0.012499999 -0.028409597 0.00074926543
-0.012499999 -0.028052656 0.00078108918
-0.012499999 -0.02479882 0.00073730526
-0.012499999 -0.022727856 0.0007299562
0.012499999 -0.019506376 0.00079158513
-0.012499999 -0.015310661 0.00072815293
0.012499999 -0.0094386544 0.00076829747
-0.012499999 -0.0041485652 0.00078564731
-0.012499999 -0.0024394777 0.00074925541
-0.012499999 0.0037040522 0.00079464843
0.012499999 0.016816281 0.0007306271
0.012499999 0.020650961 0.00077704503
0.012499999 0.024375796 0.00071183534
0.012499999 0.024777422 0.0007164632
0.012499999 0.028310494 0.00071831373
0.012499999 0.03009527 0.00076798815
-0.012499999 0.030687306 0.00077294977
0.012499999 0.03114403 0.00071016699
-0.012499999 0.031345289 0.000707548
-0.010988593 0.035 0.0007989197
-0.010707419 0.035 0.00077149877
0.00058208499 0.035 0.00078902696
0.0047442554 0.035 0.0007051141
0.0066678096 0.035 0.00072393264
0.011884356 0.035 0.00076712464
-0.0062327357 -0.035 0.00082226284
-0.0040557049 -0.035 0.00082054717
-0.012499999 -0.02330892 0.00089757849
0.012499999 -0.021831641 0.00083233905
-0.012499999 -0.020915134 0.00081586739
-0.012499999 -0.018074661 0.00084826548
-0.012499999 -0.014659962 0.00088518299
0.012499999 -0.014067516 0.00086133531
-0.012499999 -0.0086253099 0.00083421264
0.012499999 -0.0060906927 0.00085505331
-0.012499999 -0.0030507515 0.00088987581
-0.012499999 0.00055268634 0.00089216034
0.012499999 0.00053638592 0.00084220583
0.012499999 0.00086730905 0.00089804508
0.012499999 0.011627921 0.00087995152
-0.012499999 0.013736939 0.00088357984
-0.012499999 0.016293747 0.00080851157
0.012499999 0.0199866 0.00084528793
0.012499999 0.020226289 0.00081013935
-0.012499999 0.023389699 0.00080952124
-0.012499999 0.028721236 0.0008772217
0.0048487284 0.035 0.00089269131
0.00073231431 -0.035 0.00098859798
0.001521219 -0.035 0.00092459901
0.0081553161 -0.035 0.0009555174
0.012499999 -0.034038715 0.00098759076
0.012499999 -0.017120617 0.00094842853
0.012499999 -0.013870298 0.00097731338
0.012499999 -0.013754812 0.00093514274
0.012499999 -0.0089773452 0.00090846326
-0.012499999 -0.0064286315 0.00092567725
0.012499999 -0.0063251099 0.00092245551
0.012499999 -0.005935539 0.00090090255
-0.012499999 -0.0030045283 0.00093445706
-0.012499999 0.0047237286 0.0009497737
0.012499999 0.0055633578 0.00095361099
0.012499999 0.0064881248 0.00099270511
0.012499999 0.012596888 0.00095301401
0.012499999 0.012833951 0.0009702933
-0.012499999 0.015399546 0.0009668406
0.012499999 0.015301665 0.00095646549
0.012499999 0.020087816 0.00090049882
0.012499999 0.023168385 0.00093047041
0.012499999 0.024108563 0.0009060608
-0.012499999 0.033239845 0.0009663594
-0.012499999 0.034763422 0.00094658567
-0.01018307 0.035 0.00091665098
-0.0077018375 0.035 0.00095513463
-0.0033301478 0.035 0.00099051162
0.0075722383 0.035 0.00098098069
-0.0089985747 -0.035 0.0010079229
-0.0017063252 -0.035 0.0010190629
-0.00063830521 -0.035 0.0010103099
0.0038418474 -0.035 0.0010694211
0.0085546058 -0.035 0.0010731302
-0.012499999 -0.033452999 0.0010538888
-0.012499999 -0.032835204 0.0010151342
0.012499999 -0.027929394 0.0010845545
0.012499999 -0.025154686 0.0010856085
0.012499999 -0.023950376 0.0010054715
-0.012499999 -0.021574315 0.0010843407
-0.012499999 -0.021430947 0.0010427401
0.012499999 -0.018909741 0.0010387095
-0.012499999 -0.014363891 0.0010034591
-0.012499999 -0.012975466 0.0010418902
-0.012499999 -0.0075319922 0.0010564919
0.012499999 -0.0062494548 0.001017476
0.012499999 -0.00013913168 0.0010958805
-0.012499999 0.0034641959 0.0010945612
-0.012499999 0.0041931174 0.0010250059
0.012499999 0.0047499384 0.0010920211
-0.012499999 0.005802202 0.0010366241
0.012499999 0.0060210465 0.0010812773
0.012499999 0.0083574532 0.0010401679
-0.012499999 0.017544337 0.0010097567
0.012499999 0.019910634 0.0010108735
-0.012499999 0.022846755 0.0010454961
-0.012499999 0.025265666 0.0010473062
0.012499999 0.025349215 0.0010032023
0.0125 0.030207053 0.0010023513
-0.010290787 0.035 0.0010473281
0.00090396637 0.035 0.0010737448
0.0027755038 0.035 0.001036407
0.004119182 0.035 0.0010555224
-0.010731926 -0.035 0.0011098413
-0.012499999 -0.034200966 0.0011387458
0.012499999 -0.033189554 0.001163037
-0.012499999 -0.032773055 0.0011403747
0.012499999 -0.027506087 0.0011583352
0.012499999 -0.022950204 0.0011573043
0.012499999 -0.020719714 0.00110437
-0.012499999 -0.013031933 0.001183202
-0.012499999 -0.009828792 0.0011934659
-0.012499999 -0.0093929945 0.0011518437
0.012499999 -0.0017751842 0.0011569668
0.012499999 0.0031789439 0.0011348983
-0.012499999 0.0098503279 0.0011972659
-0.012499999 0.012866342 0.0011693044
0.012499999 0.013787759 0.0011555031
0.012499999 0.017546 0.0011111611
0.012499999 0.017878123 0.0011016107
-0.012499999 0.018181644 0.0011469477
-0.012499999 0.019018406 0.0011837942
0.012499999 0.020018848 0.0011313362
0.012499999 0.021718588 0.0011850006
0.012499999 0.027724989 0.0011196408
-0.0053112311 0.035 0.0011335299
-0.00018182304 0.035 0.0011765361
0.010122128 0.035000004 0.0011617935
0.011353325 0.035 0.0011407149
-0.011243124 -0.035 0.0012747623
-0.0082624629 -0.035 0.001285692
-0.0066853114 -0.035 0.0012460824
-0.0011505699 -0.035 0.0012522467
0.012499999 -0.032312106 0.0012473392
-0.012499999 -0.030263094 0.0012207399
0.012499999 -0.026764143 0.0012167857
-0.012499999 -0.026285335 0.0012017067
0.012499999 -0.022943404 0.0012106979
-0.012499999 -0.022639131 0.0012140367
0.012499999 -0.021261083 0.0012412779
-0.012499999 -0.019934617 0.0012557913
-0.012499999 -0.016898237 0.001212916
-0.012499999 -0.01369953 0.0012820058
0.012499999 -0.0070214053 0.001203135
-0.012499999 -0.0026730278 0.0012560587
-0.012499999 -0.00076339248 0.0012654248
-0.012499999 0.0094811218 0.0012007803
0.012499999 0.010691632 0.0012967938
0.012499999 0.011460552 0.0012595797
-0.012499999 0.013147337 0.0012255469
-0.012499999 0.018327901 0.0012339471
-0.012499999 0.018798545 0.0012927072
0.012499999 0.02218942 0.0012167528
-0.012499999 0.022228736 0.0012395375
0.012499999 0.024575166 0.0012602857
-0.012499999 0.025714971 0.0012843458
-0.012499999 0.026197102 0.0012730489
0.012499999 0.027333176 0.0012793719
-0.012499999 0.028465869 0.0012984847
0.012499999 0.032417111 0.0012650024
0.012499999 0.034014624 0.0012894783
0.011280049 0.035 0.0012751876
-0.011805616 -0.035 0.0013860648
-0.0018998445 -0.035 0.0013572753
0.00096255913 -0.035 0.001380827
0.012499999 -0.027471235 0.0013903502
0.012499999 -0.026724841 0.0013804691
0.012499999 -0.025394749 0.0013992493
-0.012499999 -0.022684792 0.0013929567
