# .PCD v0.7 - Point Cloud Data file format
VERSION 0.7
FIELDS x y z
SIZE 4 4 4
TYPE F F F
COUNT 1 1 1
WIDTH 1202
HEIGHT 1
VIEWPOINT 0 0 0 1 0 0 0
POINTS 1202
DATA ascii
-0.0052938163 -0.012499999 -0.0048029227
-0.0051943846 -0.012499999 -0.0048828106
-0.0031350334 -0.012499999 -0.0048948978
-0.00047460175 -0.012499999 -0.0048781596
0.0083317542 -0.012499999 -0.0048967162
0.0087122424 -0.012499999 -0.0048841154
0.009647876 -0.012499999 -0.0048251594
0.011574338 -0.012499999 -0.0048741857
0.012499999 -0.010723304 -0.0048919013
-0.012499999 -0.0069167297 -0.0048632473
0.012499999 -0.0068930648 -0.0048813801
-0.012499999 -0.0067710159 -0.0048503513
-0.012499999 -0.0024794338 -0.0048548095
-0.012499999 -0.00096417195 -0.0048548095
0.012499999 0.0010971962 -0.0048537045
-0.012499999 0.00680489 -0.0048355646
0.012499999 0.0074186362 -0.004835384
-0.012499999 0.008165691 -0.0048520621
0.012499999 0.0092929164 -0.0048615579
-0.012499999 0.010539314 -0.0048877485
0.012499999 0.011875573 -0.0048366282
-0.01200341 0.012499999 -0.0048663449
-0.010554485 0.012499999 -0.0048047323
-0.0090721594 0.012499999 -0.0048526116
-0.0063770898 0.012499999 -0.0048800688
-0.0031573097 0.012499999 -0.0048421659
-0.0023834761 0.012499999 -0.0048586559
0.011062492 0.012499999 -0.0048626689
-0.00069654291 -0.012499999 -0.0047721099
0.0034614808 -0.012499999 -0.0047979476
0.0041704616 -0.012499999 -0.0047580367
0.01125015 -0.012499999 -0.0047920505
-0.012499999 -0.012169214 -0.0047652349
0.012499999 -0.010186115 -0.0047376482
-0.012499999 -0.0081142662 -0.004793514
-0.012499999 -0.0064967969 -0.0047242087
-0.012499999 -0.0056309672 -0.004711898
0.012499999 -0.0047141127 -0.0047644707
0.012499999 -0.0040163249 -0.004719161
-0.012499999 -0.0025957711 -0.0047655576
0.012499999 -0.0022049695 -0.0047315145
-0.012499999 -0.0019663798 -0.0047633499
-0.012499999 -0.0018004843 -0.004728511
-0.012499999 -0.0014019052 -0.0047506392
-0.012499999 -8.7589258e-05 -0.0047401302
0.012499999 0.0030914899 -0.004712597
0.012499999 0.0032540616 -0.0047145402
-0.012499999 0.0055743079 -0.0047434513
-0.012499999 0.0056436239 -0.0047942572
0.012499999 0.0056755785 -0.0047734212
-0.012499999 0.0092917895 -0.0047650062
-0.012499999 0.010174586 -0.0047318321
0.012499999 0.012014152 -0.0047340244
-0.01113853 0.012499999 -0.0047716331
-0.0063246256 0.012499999 -0.0047202059
-0.0050307196 0.012499999 -0.0047909487
1.2607081e-05 0.012499999 -0.0047202059
0.0028028802 0.012499999 -0.0047063548
0.0032524685 0.012499999 -0.0047340449
0.0071412921 0.012499999 -0.004710706
0.012248876 0.012499999 -0.004715756
-0.0094837211 -0.012499999 -0.0046586809
-0.0082587879 -0.012499999 -0.0046553942
-0.0078530209 -0.012499999 -0.0046469299
-0.0024106731 -0.012499999 -0.0046695536
0.0032149998 -0.012499999 -0.0046759136
0.011168802 -0.012499999 -0.0046806452
0.011436072 -0.012499999 -0.0046884818
-0.012499999 -0.0083504403 -0.0046627843
-0.012499999 -0.0052059419 -0.0046898271
0.012499999 -0.0040555429 -0.0046420787
0.012499999 -0.0022360664 -0.0046071559
-0.012499999 0.003960852 -0.0046358197
0.012499999 0.0061009973 -0.0046109706
0.012499999 0.0095622586 -0.0046692104
0.0125 0.01138512 -0.0046972716
-0.012408395 0.012499999 -0.0046525076
-0.011264564 0.012499999 -0.0046101999
-0.0097986273 0.012499999 -0.0046813949
-0.0091568278 0.012499999 -0.004669453
-0.0090891737 0.012499999 -0.0046736225
-0.0037835338 0.012499999 -0.0046719559
-0.0036846728 0.012499999 -0.0046491711
-0.0022943504 0.012499999 -0.0046224575
0.0015392322 0.012499999 -0.0046068546
0.0017759115 0.012499999 -0.0046780645
0.0049392302 0.012499999 -0.0046811113
0.0062433868 0.012499999 -0.0046309112
0.0069092866 0.012499999 -0.0046780007
0.011935147 0.012499999 -0.0046138493
0.01234464 0.012499999 -0.0046413452
-0.0015715745 -0.012499999 -0.0045358576
0.0014613345 -0.012499999 -0.0045330431
0.0017049897 -0.012499999 -0.0045780996
0.011978835 -0.012499999 -0.0045627565
0.012243534 -0.012499999 -0.0045173797
0.012499999 -0.0095893163 -0.0045205303
-0.012499999 -0.00899461 -0.0045061428
0.012499999 -0.0031944257 -0.0045330478
0.012499999 8.8048168e-05 -0.0045557898
0.012499999 0.00061719678 -0.0045300215
-0.012499999 0.0062620295 -0.0045979335
-0.012499999 0.0064325007 -0.0045207869
0.012499999 0.0068820328 -0.0045279954
-0.012499999 0.010153499 -0.0045073344
0.012499999 0.010231612 -0.0045459592
0.012499999 0.011029252 -0.0045916527
0.012499999 0.011187121 -0.0045699757
-0.012499999 0.01210562 -0.0045263884
-0.012497393 0.012499999 -0.0045767245
-0.0066450648 0.012499999 -0.0045689046
-0.0016098451 0.012499999 -0.0045806332
0.00053040264 0.012499999 -0.0045778421
0.0016779616 0.012499999 -0.0045934706
0.0037945835 0.012499999 -0.0045577255
0.0047406852 0.012499999 -0.0045060245
0.0062698256 0.012499999 -0.004538795
0.006359037 0.012499999 -0.0045202123
0.0078809317 0.012499999 -0.0045670397
0.0079225339 0.012499999 -0.0045725852
0.0095045343 0.012499999 -0.004569497
-0.0085756574 -0.012499999 -0.0044078631
-0.0084528886 -0.012499999 -0.0044107074
-0.0041931979 -0.012499999 -0.004484429
-3.8049184e-06 -0.012499999 -0.0044249659
0.0033871287 -0.012499999 -0.004488742
0.0038028085 -0.012499999 -0.0044959742
0.011929445 -0.012499999 -0.0044668224
0.012499999 -0.01167579 -0.004449273
-0.012499999 -0.010880705 -0.0044790297
0.012499999 -0.010379506 -0.0044424585
-0.012499999 -0.0091353217 -0.0044511072
0.012499999 -0.008181924 -0.0044684606
0.012499999 -0.007628087 -0.0044955709
0.012499999 -0.0075269132 -0.0044893567
-0.012499999 -0.0031370861 -0.0044275206
0.012499999 -0.0029537734 -0.0044538318
-0.012499999 0.0012015922 -0.0044207596
-0.012499999 0.004610633 -0.0044876956
-0.012499999 0.005559613 -0.0044213235
0.012499999 0.0080380496 -0.0044470592
-0.012499999 0.0087111797 -0.0044629779
0.012499999 0.0090658367 -0.0044838549
-0.012499999 0.0093852915 -0.0044258311
-0.0087336358 0.012499999 -0.0044551045
0.0096285697 0.012499999 -0.0044941851
0.010052463 0.012499999 -0.0044453186
0.010862917 0.012499999 -0.0044382582
-0.01038909 -0.012499999 -0.0043517854
-0.010196202 -0.012499999 -0.0043642311
-0.0086244717 -0.012499999 -0.0043535475
-0.0043046852 -0.012499999 -0.0043168948
-6.1659841e-05 -0.012499999 -0.0043709753
0.0022640128 -0.012499999 -0.0043107606
0.0040798136 -0.012499999 -0.004339892
0.0052468604 -0.012499999 -0.0043129479
-0.012499999 -0.0088628046 -0.0043375734
-0.012499999 -0.0080018193 -0.0043481439
0.012499999 -0.0070439409 -0.0043920791
-0.012499999 -0.0042741499 -0.0043280735
0.012499999 0.0038058511 -0.0043946058
0.012499999 0.0045553534 -0.0043026898
0.012499999 0.0047199172 -0.0043050167
-0.012423801 0.012499999 -0.0043705236
-0.0083616767 0.012499999 -0.0043411031
-0.0081358328 0.012499999 -0.00433204
-0.0027848063 0.012499999 -0.0043643042
-0.0017116149 0.012499999 -0.0043959417
0.0044083544 0.012499999 -0.0043742978
0.0086889304 0.012499999 -0.0043622972
0.010156669 0.012499999 -0.0043715029
-0.0075469031 -0.012499999 -0.0042597926
-0.0025171116 -0.012499999 -0.004216732
-0.0014227947 -0.012499999 -0.0042146388
0.0041094194 -0.012499999 -0.0042465623
0.010246708 -0.012499999 -0.0042890254
0.012499999 -0.012413256 -0.0042675552
-0.012499999 -0.0089159487 -0.0042030793
-0.012499999 -0.0088853035 -0.0042264229
0.012499999 -0.0070590614 -0.0042001726
0.012499999 -0.0062046777 -0.0042710379
0.012499999 -0.0018192166 -0.0042133997
0.012499999 0.0025505577 -0.0042742812
0.012499999 0.0050732549 -0.0042806142
-0.012499999 0.0089157708 -0.0042519611
0.012499999 0.011525614 -0.0042539709
-0.001783974 0.012499999 -0.0042234715
-0.00096710538 0.012499999 -0.0042120633
0.00050028833 0.012499999 -0.0042200503
0.0044921874 0.012499999 -0.0042526121
0.0059903278 0.012499999 -0.0042907163
0.0068453052 0.012499999 -0.0042388136
0.011445105 0.012499999 -0.0042823264
0.0012339946 -0.012499999 -0.0041577579
0.0022243569 -0.012499999 -0.0041026026
-0.012499999 -0.011823222 -0.0041758344
-0.012499999 -0.01092845 -0.0041444162
-0.012499999 -0.00828401 -0.0041682958
-0.012499999 -0.0081668133 -0.0041495031
-0.012499999 -0.0074358499 -0.004173087
0.012499999 -0.0069299131 -0.0041191895
0.012499999 -0.0056703612 -0.0041883681
0.012499999 -0.0019715885 -0.0041618776
0.012499999 -0.0012768013 -0.004149748
0.012499999 -0.00096027739 -0.0041436022
-0.012499999 0.0028124454 -0.0041147694
0.012499999 0.0042116875 -0.0041653956
-0.012499999 0.0074115051 -0.0041440171
-0.012499999 0.01139364 -0.0041451626
-0.01116634 0.012499999 -0.0041164919
-0.0072346777 0.012499999 -0.0041009872
0.00048109656 0.012499999 -0.0041875076
0.0024341396 0.012499999 -0.004194364
0.0058453437 0.012499999 -0.0041864915
-0.012499999 -0.012404225 -0.0040092347
-0.011347728 -0.012499999 -0.0040292246
-0.00054456771 -0.012499999 -0.0040043341
0.0075665684 -0.012499999 -0.0040377835
0.010131869 -0.012499999 -0.004059291
0.010656117 -0.012499999 -0.0040209172
0.011547692 -0.012499999 -0.0040813773
0.011771484 -0.012499999 -0.0040363697
0.012499999 -0.011571027 -0.0040830732
-0.012499999 -0.010696752 -0.0040644356
0.012499999 -0.0087679978 -0.0040824991
0.012499999 -0.0081948321 -0.0040977765
0.012499999 -0.0066132024 -0.004083728
-0.012499999 -0.003619656 -0.0040837452
0.012499999 -0.0021223724 -0.0040879408
0.012499999 -0.001817219 -0.0040406594
0.012499999 0.00014889706 -0.0040323632
-0.012499999 0.00023246231 -0.0040220991
0.012499999 0.0013201716 -0.0040533748
-0.012499999 0.0026928731 -0.0040070843
0.012499999 0.004885166 -0.0040269489
0.012499999 0.0083290292 -0.0040664342
-0.012499999 0.008663361 -0.0040463232
0.012499999 0.0090833306 -0.0040573925
-0.012499999 0.01043289 -0.0040854705
-0.012499999 0.011363922 -0.0040232521
-0.007533377 0.012499999 -0.0040342151
0.0016162107 0.012499999 -0.0040359446
0.0045297486 0.012499999 -0.0040178378
0.011079889 0.012499999 -0.0040616193
-0.011913281 -0.012499999 -0.0039131036
-0.011284059 -0.012499999 -0.0039792876
-0.0010661089 -0.012499999 -0.003990612
0.0019300474 -0.012499999 -0.0039353073
0.0021349709 -0.012499999 -0.0039908262
0.0036996661 -0.012499999 -0.0039433255
0.0084893191 -0.012499999 -0.0039763954
0.010327434 -0.012499999 -0.0039170692
0.010586461 -0.012499999 -0.0039995154
0.0121429 -0.012499999 -0.0039924062
-0.012499999 -0.010908794 -0.0039442931
-0.012499999 -0.010868594 -0.0039225905
-0.012499999 -0.010417515 -0.0039506042
0.012499999 -0.010120863 -0.0039805877
0.012499999 -0.009065453 -0.0039693778
0.012499999 -0.0082454607 -0.0039075497
0.012499999 -0.0057724207 -0.003923093
0.012499999 -0.0056220107 -0.0039677001
0.012499999 -0.0036632144 -0.003918224
-0.012499999 0.0001987638 -0.003998993
-0.012499999 0.00039649406 -0.0039451495
0.012499999 0.00032386743 -0.0039754435
0.012499999 0.00061880238 -0.0039128903
-0.012499999 0.0023181105 -0.0039079934
-0.012499999 0.0063836067 -0.0039550047
0.012499999 0.0070384457 -0.0039977343
-0.012499999 0.0094969273 -0.0039254217
-0.012499999 0.011091402 -0.0039318069
0.0040618777 0.012499999 -0.0039340043
0.0047705285 0.012499999 -0.0039256597
0.0062698256 0.012499999 -0.003912142
0.0071854256 0.012499999 -0.0039515803
0.012478247 0.012499999 -0.0039453339
-0.011074226 -0.012499999 -0.0038036848
-0.0069657099 -0.012499999 -0.0038439962
-0.0064266785 -0.012499999 -0.0038800561
-0.0051576965 -0.012499999 -0.0038962015
-0.0050819218 -0.012499999 -0.003832279
-0.0038039547 -0.012499999 -0.0038612408
-0.0027366458 -0.012499999 -0.0038341936
-0.00020999752 -0.012499999 -0.0038355454
0.00057625282 -0.012499999 -0.0038032413
0.0067728688 -0.012499999 -0.0038454444
0.007436607 -0.012499999 -0.0038455555
0.0098489877 -0.012499999 -0.0038591437
-0.012499999 -0.01163061 -0.003896168
0.012499999 -0.0087890625 -0.0038623631
0.012499999 -0.0038876384 -0.0038130712
0.012499999 -0.00069986004 -0.0038827083
0.012499999 0.00018446706 -0.0038849895
0.012499999 0.00073819794 -0.0038430437
-0.012499999 0.0021661264 -0.0038340106
-0.012499999 0.0022157026 -0.0038940385
-0.012499999 0.0068962127 -0.0038077161
0.012499999 0.0069452068 -0.0038509411
0.012499999 0.010367476 -0.0038730223
-0.012499999 0.011350969 -0.0038275882
0.012499999 0.01212876 -0.0038663917
-0.01012768 0.012499999 -0.0038655084
-0.0088260975 0.012499999 -0.0038147327
-0.0017119043 0.012499999 -0.0038841455
-0.00096052885 0.012499999 -0.0038882196
8.8992063e-05 0.012499999 -0.003851518
0.0028773909 0.012499999 -0.0038112253
0.0030539907 0.012499999 -0.0038555991
0.0059800097 0.012499999 -0.0038589365
0.0083349086 0.012499999 -0.0038503928
0.0090782735 0.012499999 -0.003891797
0.011403648 0.012499999 -0.0038294417
-0.0075088087 -0.012499999 -0.0037443342
-0.0035144745 -0.012499999 -0.0037860305
-0.0016561245 -0.012499999 -0.003768282
-0.012499999 -0.010919215 -0.0037686829
-0.012499999 -0.010057731 -0.003729749
-0.012499999 -0.0094980579 -0.0037405519
-0.012499999 -0.0085495431 -0.0037443268
-0.012499999 -0.0052719638 -0.0037106844
-0.012499999 -0.0043245177 -0.0037362364
0.012499999 -9.3491748e-05 -0.0037635721
0.012499999 0.0020603687 -0.0037715272
0.012499999 0.006258945 -0.0037435498
-0.012499999 0.0069191651 -0.0037843077
0.012499999 0.010598876 -0.0037370175
-0.0062074484 0.012499999 -0.0037038755
0.0019962559 0.012499999 -0.0037303385
0.0063868295 0.012499999 -0.003712425
0.0085448641 0.012499999 -0.0037467026
0.0092701167 0.012499999 -0.0037133156
0.0095348507 0.012499999 -0.0037376571
0.010541081 0.012499999 -0.0037935777
0.010963527 0.012499999 -0.0037378673
0.012106273 0.012499999 -0.0037995535
-0.012499999 -0.01069906 -0.0036470997
0.012499999 -0.010391174 -0.0036349795
0.012499999 -0.01028469 -0.0036810841
0.012499999 -0.0046769544 -0.0036090601
0.012499999 -0.0009446796 -0.0036186662
0.012499999 0.004466976 -0.0036541766
0.012499999 0.0053811893 -0.0036385357
0.012499999 0.0061553223 -0.0036741216
0.012499999 0.0065316707 -0.0036310055
0.012499999 0.007888346 -0.0036525372
-0.012499999 0.0080798697 -0.0036218613
-0.012499999 0.0094448123 -0.0036732429
0.012499999 0.01041975 -0.003662244
-0.010617753 0.012499999 -0.0036248174
-0.0092100948 0.012499999 -0.0036891564
0.0023808316 0.012499999 -0.0036944565
-0.0094394274 -0.012499999 -0.0035836468
-0.0016488137 -0.012499999 -0.0035700977
0.010612151 -0.012499999 -0.0035748715
0.012499999 -0.010817155 -0.003521244
-0.012499999 -0.010460493 -0.0035276909
0.012499999 -0.008376522 -0.0035748533
-0.012499999 -0.0075628655 -0.003575986
-0.012499999 -0.0041724481 -0.0035517211
-0.012499999 0.00019319262 -0.0035934416
-0.012499999 0.00036937557 -0.0035916641
-0.012499999 0.00061348709 -0.0035975887
0.012499999 0.00074955495 -0.0035838906
-0.012499999 0.0011693409 -0.0035132417
-0.012499999 0.0063102199 -0.0035667536
-0.012499999 0.012039121 -0.0035489365
-0.0085751675 0.012499999 -0.0035400209
-0.0079423077 0.012499999 -0.0035691275
-0.0063824877 0.012499999 -0.0035495311
-0.0044298274 0.012499999 -0.0035239588
-0.0023775783 0.012499999 -0.0035013272
0.0047611389 0.012499999 -0.0035263945
0.0062235319 0.012499999 -0.0035819644
0.011036979 0.012499999 -0.0035674653
-0.010956615 -0.012499999 -0.0034760977
-0.009118896 -0.012499999 -0.0034271781
0.008188989 -0.012499999 -0.0034388783
0.0088273743 -0.012499999 -0.0034900885
-0.012499999 -0.011674307 -0.0034899088
0.012499999 -0.01145904 -0.0034429734
-0.012499999 -0.0091003794 -0.0034136162
-0.012499999 -0.007168198 -0.0034020895
-0.012499999 -0.0070465948 -0.0034602745
0.012499999 -0.003648458 -0.00345641
-0.012499999 -0.0025246739 -0.0034020841
-0.012499999 -0.0017900998 -0.003461346
0.012499999 0.001511177 -0.0034032343
-0.012499999 0.0039941608 -0.0034697079
0.012499999 0.0081000533 -0.003483837
-0.012499999 0.0097528771 -0.0034577604
-0.012499999 0.010665601 -0.0034230598
-0.012499999 0.011540222 -0.0034888056
-0.0090413997 0.012499999 -0.0034959628
-0.0029607923 0.012499999 -0.0034822449
-0.0025397527 0.012499999 -0.0034068804
-0.0016484717 0.012499999 -0.0034905951
0.0016881423 0.012499999 -0.0034864196
0.00208076 0.012499999 -0.0034032837
0.0037473706 0.012499999 -0.0034736726
0.0063068792 0.012499999 -0.0034773524
0.0066799461 0.012499999 -0.0034969454
-0.010850668 -0.012499999 -0.0033355281
-0.0055898814 -0.012499999 -0.0033336147
-0.0040272921 -0.012499999 -0.0033751377
0.0093815736 -0.012499999 -0.0033953893
0.012499999 -0.0086465795 -0.0033632417
-0.012499999 -0.0084379967 -0.0033637015
-0.012499999 -0.0080897743 -0.0033072124
-0.012499999 -0.007522516 -0.003355596
0.012499999 -0.0070873215 -0.0033345823
0.012499999 -0.0061203614 -0.0033250626
0.012499999 -0.0023141662 -0.0033225226
-0.012499999 -0.0013741283 -0.0033263396
0.012499999 0.0014877692 -0.0033909145
0.012499999 0.0020503253 -0.0033485624
-0.012499999 0.002813356 -0.003386484
-0.012499999 0.0096245855 -0.0033462122
-0.012499999 0.011582768 -0.003352229
-0.0076599102 0.012499999 -0.0033172979
-0.0053209173 0.012499999 -0.0033317623
-0.0027585714 0.012499999 -0.003386484
-0.00057501625 0.012499999 -0.0033124741
0.0038018674 0.012499999 -0.00339641
0.0062845536 0.012499999 -0.0033133517
0.0066296607 0.012499999 -0.0033960429
-0.010641027 -0.012499999 -0.0032583284
-0.0055217459 -0.012499999 -0.003234379
-0.0033166944 -0.012499999 -0.0032037459
0.0041328385 -0.012499999 -0.0032895785
0.010452958 -0.012499999 -0.0032526401
0.011722175 -0.012499999 -0.0032472378
0.012499999 -0.012251187 -0.0032915731
-0.012499999 -0.010556155 -0.0032494629
0.012499999 -0.010082887 -0.0032436892
-0.012499999 -0.0090330727 -0.003216499
0.012499999 -0.0059428164 -0.0032994156
0.012499999 -0.0058198534 -0.0032249028
-0.012499999 0.00020618737 -0.0032810806
-0.012499999 0.0021205728 -0.0032847058
-0.012499999 0.0073499526 -0.0032041445
0.012499999 0.0099579785 -0.0032324269
-0.012499999 0.011019673 -0.0032798722
-0.0037174318 0.012499999 -0.0032726177
-0.0035471229 0.012499999 -0.0032834974
0.00055194227 0.012499999 -0.0032841023
0.012261974 0.012499999 -0.0032180499
-0.0096514001 -0.012499999 -0.0031840403
-0.0059753656 -0.012499999 -0.0031585044
-0.0025695891 -0.012499999 -0.0031867966
-0.00055309176 -0.012499999 -0.0031180687
0.0014618507 -0.012499999 -0.0031642367
0.0076478026 -0.012499999 -0.0031446381
0.011007806 -0.012499999 -0.003162472
0.011742724 -0.012499999 -0.0031660232
-0.012499999 -0.012245702 -0.0031177723
0.012499999 -0.011793451 -0.0031415937
0.012499999 -0.011502786 -0.0031920346
0.012499999 -0.010515405 -0.0031668483
-0.012499999 -0.0064960439 -0.0031990341
0.012499999 -0.0042166277 -0.0031902543
-0.012499999 -0.0029550521 -0.0031286608
-0.012499999 -0.0022447663 -0.0031640138
-0.012499999 4.4024549e-05 -0.0031646215
0.012499999 0.0061310353 -0.0031097536
0.012499999 0.0063391137 -0.0031006183
0.012499999 0.0069256811 -0.0031280522
-0.012499999 0.0070308959 -0.0031475662
-0.012125848 0.012499999 -0.0031980705
-0.011985533 0.012499999 -0.0031237798
-0.0077037816 0.012499999 -0.0031786188
-0.002756218 0.012499999 -0.0031274408
-0.00079724751 0.012499999 -0.0031024003
0.0049310252 0.012499999 -0.0031165339
0.0071660373 0.012499999 -0.0031077571
0.0079603232 0.012499999 -0.0031549453
0.0086371079 0.012499999 -0.0031773767
-0.0089239199 -0.012499999 -0.0030285507
-0.0051019806 -0.012499999 -0.0030682546
-0.0029550274 -0.012499999 -0.0030555567
0.0012958574 -0.012499999 -0.0030226794
0.0063416017 -0.012499999 -0.0030175373
0.0075267507 -0.012499999 -0.0030056147
0.012499999 -0.010739313 -0.0030164756
-0.012499999 -0.0065287333 -0.0030565662
-0.012499999 -0.0039047091 -0.0030248151
0.012499999 -0.0035887002 -0.0030337481
0.012499999 0.0011005406 -0.0030817392
-0.012499999 0.002545207 -0.0030577164
-0.012499999 0.0036140033 -0.0030742586
0.012499999 0.0060612638 -0.003054061
-0.012499999 0.0063260552 -0.0030227359
-0.012499999 0.0064885663 -0.0030104443
-0.012499999 0.0066301571 -0.0030920058
-0.012499999 0.0071844663 -0.0030711964
-0.012499999 0.011689628 -0.0030926177
-0.010343803 0.012499999 -0.0030797692
-0.010280451 0.012499999 -0.0030705836
-0.0092571648 0.012499999 -0.003030722
-0.0035715476 0.012499999 -0.0030944524
0.0036891564 0.012499999 -0.0030740593
0.0042211902 0.012499999 -0.0030572182
0.0051587769 0.012499999 -0.0030996278
0.011851089 0.012499999 -0.0030256035
-0.0019227851 -0.012499999 -0.002936295
0.00072125869 -0.012499999 -0.0029310752
0.0031211982 -0.012499999 -0.002942048
0.0071047675 -0.012499999 -0.0029496772
-0.012499999 -0.012058068 -0.0029018722
0.012499999 -0.011251558 -0.0029814004
-0.012499999 -0.01119386 -0.0029714205
-0.012499999 -0.010315955 -0.0029693311
0.012499999 -0.0052975663 -0.0029972463
0.012499999 -0.00252447 -0.0029918689
-0.012499999 -0.0019477741 -0.0029562414
-0.012499999 -0.0014684959 -0.0029525394
0.012499999 0.0024456736 -0.0029675979
-0.012499999 0.0025367665 -0.0029889094
0.012499999 0.0040497677 -0.0029656286
0.012499999 0.011212469 -0.0029806434
-0.0037648114 0.012499999 -0.0029129907
0.0026972122 0.012499999 -0.0029494539
0.0060124933 0.012499999 -0.0029560784
0.0061362311 0.012499999 -0.0029160667
0.0078453384 0.012499999 -0.0029254032
0.012498474 0.012499999 -0.0029287457
-0.012270831 -0.012499999 -0.0028570378
-0.0062794774 -0.012499999 -0.0028861281
-0.0020875263 -0.012499999 -0.002836901
-0.0012212539 -0.012499999 -0.0028656847
0.0011772885 -0.012499999 -0.0028123138
0.0042926446 -0.012499999 -0.0028637641
0.0043081194 -0.012499999 -0.0028226534
0.0051657874 -0.012499999 -0.0028078232
0.0058481283 -0.012499999 -0.0028904181
0.012499999 -0.011174742 -0.0028987532
-0.012499999 -0.011018463 -0.0028691906
0.012499999 -0.0080519412 -0.0028712943
0.012499999 -0.0074797138 -0.0028570809
0.012499999 -0.0044292118 -0.002837826
0.012499999 -0.00023506396 -0.0028647548
-0.012499999 -6.0367398e-05 -0.0028906995
-0.012499999 0.0020299146 -0.0028745802
-0.012499999 0.0039158352 -0.0028590644
0.012499999 0.0072442428 -0.0028137993
-0.012499999 0.0088107381 -0.0028491272
0.012499999 0.0092630237 -0.002834497
-0.012499999 0.010810373 -0.0028155381
-0.0083042718 0.012499999 -0.002899372
-0.0073109111 0.012499999 -0.0028503696
-0.0057949391 0.012499999 -0.0028472627
0.0034541734 0.012499999 -0.0028090542
0.0060150679 0.012499999 -0.0028214902
0.0074180453 0.012499999 -0.0028293822
-0.012189075 -0.012499999 -0.0027483371
-0.0093593001 -0.012499999 -0.0027077172
0.00015696499 -0.012499999 -0.0027813665
0.0059195524 -0.012499999 -0.0027832601
-0.012499999 -0.012026614 -0.0027907654
0.012499999 -0.010355316 -0.002706557
0.012499999 -0.009690972 -0.0027548796
0.012499999 -0.003037475 -0.0027231686
-0.012499999 -0.0014621667 -0.0027199695
0.012499999 0.00050297845 -0.0027597419
0.012499999 0.00067431666 -0.0027194868
-0.012499999 0.002053285 -0.0027168365
0.012499999 0.0040312596 -0.0027794
-0.012499999 0.0059191664 -0.0027849972
-0.012499999 0.0080150934 -0.0027718889
0.012499999 0.0080680922 -0.0027892166
-0.012499999 0.0081636645 -0.0027837483
0.012499999 0.010323111 -0.0027803811
0.012499999 0.012055556 -0.002738303
-0.0094403317 0.012499999 -0.0027787564
-0.0019343155 0.012499999 -0.0027149571
-0.0010037143 0.012499999 -0.0027656434
0.0010587419 0.012499999 -0.0027825013
-0.010913886 -0.012499999 -0.002685301
-0.0010159317 -0.012499999 -0.0026468905
-0.00070928287 -0.012499999 -0.0026268491
0.0079366146 -0.012499999 -0.0026241224
0.012423277 -0.012499999 -0.0026397496
-0.012499999 -0.011910363 -0.0026442371
0.012499999 -0.0089497231 -0.002651639
0.012499999 -0.0082339644 -0.0026632627
-0.012499999 -0.0032418575 -0.0026187818
0.012499999 -0.001974225 -0.0026457063
0.012499999 -0.0017169518 -0.0026846284
0.012499999 -0.00052677281 -0.0026376899
0.012499999 0.00016976288 -0.0026118783
-0.012499999 0.0024818184 -0.002656552
0.012499999 0.0085611437 -0.002659467
-0.012499999 0.0099893995 -0.0026143352
-0.0097914888 0.012499999 -0.0026351437
-0.0070035104 0.012499999 -0.0026275795
-0.0051863412 0.012499999 -0.0026622145
0.00075603882 0.012499999 -0.0026149657
0.0010315673 0.012499999 -0.0026798155
0.00498456 0.012499999 -0.0026783999
0.010234408 0.012499999 -0.0026227385
0.011134425 0.012499999 -0.0026422469
0.011509936 0.012499999 -0.0026271075
0.012490842 0.012499999 -0.002618972
-0.0096823741 -0.012499999 -0.0025703136
-0.0048471149 -0.012499999 -0.0025130264
-0.0036702943 -0.012499999 -0.0025303597
-0.00029817875 -0.012499999 -0.0025902127
0.0057845381 -0.012499999 -0.0025296682
0.0089952508 -0.012499999 -0.0025048538
0.012499999 -0.010464381 -0.0025140538
0.012499999 -0.0094185527 -0.0025246767
-0.012499999 -0.0084041292 -0.0025283052
0.012499999 0.0038406928 -0.0025543924
-0.012499999 0.0039712247 -0.0025390619
-0.012499999 0.0053996281 -0.0025009662
-0.012499999 0.0054826206 -0.0025991844
0.012499999 0.0063576773 -0.0025591883
0.012499999 0.007412598 -0.0025812774
-0.012499999 0.0087663196 -0.0025282782
0.012499999 0.0087922718 -0.0025601471
-0.012499999 0.01002869 -0.0025352566
-0.012499999 0.012029834 -0.0025599748
3.4473836e-05 0.012499999 -0.0025219303
0.00053229462 0.012499999 -0.0025669383
0.003869588 0.012499999 -0.0025252714
0.0046296963 0.012499999 -0.002527691
0.0053542759 0.012499999 -0.002574353
0.0066719889 0.012499999 -0.0025342843
-0.012499999 -0.01244935 -0.0024012844
-0.009854963 -0.012499999 -0.0024910881
-0.0084972288 -0.012499999 -0.0024251551
-0.0061658854 -0.012499999 -0.0024600979
0.012499999 -0.010159194 -0.0024669715
0.012499999 -0.0095547512 -0.002423655
-0.012499999 -0.0052433182 -0.0024166633
0.012499999 -0.0049654581 -0.002468341
0.012499999 -0.00401517 -0.0024557239
0.012499999 -0.0035233647 -0.0024262287
-0.012499999 -0.0017932295 -0.0024263989
-0.012499999 0.0019393724 -0.0024837907
0.012499999 0.0061408598 -0.002472267
-0.012499999 0.0062189936 -0.0024946081
-0.012499999 0.012378525 -0.0024640486
-0.011850512 0.012499999 -0.0024876101
-0.0074207624 0.012499999 -0.0024659606
-0.0010466613 0.012499999 -0.0024576737
0.00085204653 0.012499999 -0.0024487451
0.0080185048 0.012499999 -0.0024323978
0.0087276027 0.012499999 -0.0024114058
-0.0070077982 -0.012499999 -0.0023130202
-0.0055286237 -0.012499999 -0.0023006601
0.00087772729 -0.012499999 -0.0023027109
0.0030653905 -0.012499999 -0.0023877397
0.003488377 -0.012499999 -0.0023068318
0.0035828003 -0.012499999 -0.0023329589
0.0076437108 -0.012499999 -0.0023311845
0.012499999 -0.0078411195 -0.0023803425
-0.012499999 -0.0075501096 -0.0023981272
-0.012499999 -0.0067929048 -0.0023615456
0.012499999 -0.0058689797 -0.0023838393
0.012499999 -0.0032393276 -0.0023948983
0.012499999 -0.00309751 -0.0023369617
-0.012499999 0.00065555843 -0.0023386087
-0.012499999 0.0029153801 -0.0023989007
0.012499999 0.0037157051 -0.0023653703
-0.012499999 0.0039329724 -0.0023956997
0.012499999 0.0065418761 -0.0023043873
0.012499999 0.0073516183 -0.0023390558
-0.012499999 0.0098014763 -0.002311592
0.012499999 0.010972964 -0.0023503243
-0.0065768557 0.012499999 -0.0023841709
-0.0029371963 0.012499999 -0.0023572352
-0.00052185031 0.012499999 -0.0023668613
-0.00044784416 0.012499999 -0.0023045074
0.0085516609 0.012499999 -0.0023726185
0.0090601463 0.012499999 -0.0023969507
-0.011928901 -0.012499999 -0.002299882
-0.0042548073 -0.012499999 -0.002292376
0.0003335675 -0.012499999 -0.0022352361
0.00856434 -0.012499999 -0.0022435498
0.012499999 -0.011974534 -0.0022136443
-0.012499999 -0.010416063 -0.0022894125
0.012499999 -0.010203764 -0.0022629355
0.012499999 -0.0059469528 -0.0022862826
-0.012499999 -0.005888788 -0.0022743922
0.012499999 -0.0057483967 -0.0022503128
-0.012499999 -0.0034056557 -0.0022573825
0.012499999 -0.0018132227 -0.0022136813
0.012499999 -0.0013430966 -0.0022499068
-0.012499999 0.003075388 -0.0022812989
-0.012499999 0.0056749657 -0.0022677435
0.012499999 0.0099956645 -0.0022512102
0.012499999 0.011418514 -0.0022931695
-0.012029713 0.012499999 -0.0022185817
-0.011449282 0.012499999 -0.002276781
-0.0045756656 0.012499999 -0.0022587003
0.010102306 0.012499999 -0.0022789612
-0.010354899 -0.012499999 -0.0021944286
-0.0087437704 -0.012499999 -0.0021900206
-0.0070936494 -0.012499999 -0.0021772988
-0.0043603447 -0.012499999 -0.0021606996
-0.003329955 -0.012499999 -0.002140583
0.0022199159 -0.012499999 -0.0021771602
0.011408947 -0.012499999 -0.0021248613
0.01234708 -0.012499999 -0.0021259552
0.012499999 -0.010706872 -0.0021593156
-0.012499999 -0.010603962 -0.0021629613
-0.012499999 -0.0098781846 -0.0021955878
0.012499999 -0.0089074429 -0.0021275028
0.012499999 -0.0075369119 -0.0021678554
0.012499999 -0.0068211355 -0.00210003
0.012499999 -0.0065457225 -0.0021843417
0.012499999 0.00025825249 -0.0021467423
0.012499999 0.00089245476 -0.0021889517
-0.012499999 0.0022922647 -0.0021640537
-0.012499999 0.0028847679 -0.0021001818
0.012499999 0.0030182381 -0.0021530446
-0.012499999 0.0047936332 -0.0021764049
0.012499999 0.0051215473 -0.002164111
0.012499999 0.0063904524 -0.0021927538
-0.012499999 0.0067711314 -0.0021555973
-0.012499999 0.0090112165 -0.0021621035
-0.012499999 0.0091090742 -0.0021106284
-0.012499999 0.010018992 -0.0021958873
-0.012499999 0.011416304 -0.0021073641
-0.007961439 0.012499999 -0.0021796534
0.00025720848 0.012499999 -0.0021640537
0.0025536399 0.012499999 -0.0021893349
0.0039978367 0.012499999 -0.002186337
0.0056093764 0.012499999 -0.0021337341
-0.012281224 -0.012499999 -0.0020141979
-0.012083009 -0.012499999 -0.002044396
-0.0081385337 -0.012499999 -0.0020001328
-0.0059133186 -0.012499999 -0.0020101536
-0.00029632973 -0.012499999 -0.002090279
0.0034748774 -0.012499999 -0.0020957009
0.0040565748 -0.012499999 -0.0020268271
0.0058594141 -0.012499999 -0.0020270413
0.012499999 -0.012027081 -0.0020485946
0.012499999 -0.0049485229 -0.002057936
0.012499999 -0.0033576428 -0.0020435762
-0.012499999 -0.0025448673 -0.0020369301
0.012499999 -0.0025694696 -0.0020210894
-0.012499999 -0.0015986706 -0.0020589707
-0.012499999 0.0014578584 -0.0020681396
-0.012499999 0.0041080425 -0.0020596264
0.012499999 0.0042153294 -0.0020923908
0.012499999 0.004877537 -0.0020084279
0.012499999 0.0065313904 -0.002089642
0.012499999 0.0087326216 -0.0020275339
-0.012499999 0.0094176261 -0.002007788
0.012499999 0.012003817 -0.0020238915
-0.012132323 0.012499999 -0.0020156736
-0.0065777819 0.012499999 -0.0020091021
-0.0056833411 0.012499999 -0.002058317
-0.0042270613 0.012499999 -0.0020550415
-0.0014899326 0.012499999 -0.0020228997
0.0005086977 0.012499999 -0.0020360276
0.0037191715 0.012499999 -0.002066962
0.0047296174 0.012499999 -0.0020401191
0.0060675316 0.012499999 -0.0020432826
0.0099503193 0.012499999 -0.0020569444
-0.0097210333 -0.012499999 -0.0019672718
-4.4573622e-05 -0.012499999 -0.0019538773
0.00088124361 -0.012499999 -0.0019695093
0.0019593604 -0.012499999 -0.0019387534
0.0092907585 -0.012499999 -0.0019068511
0.0099585075 -0.012499999 -0.0019162595
0.010045261 -0.012499999 -0.0019243062
0.012004998 -0.012499999 -0.0019758441
0.012311069 -0.012499999 -0.0019965749
0.012499999 -0.011677762 -0.0019259173
-0.012499999 -0.006102684 -0.0019321006
0.012499999 -0.0054246434 -0.0019371068
0.012499999 -0.0048679933 -0.001988993
-0.012499999 -0.0042151799 -0.0019462326
0.012499999 -0.0039474689 -0.0019678571
-0.012499999 -0.0029090487 -0.0019491531
-0.012499999 -0.0017298171 -0.0019154651
-0.012499999 -0.0014611445 -0.0019187713
0.012499999 -0.00098575931 -0.0019807126
-0.012499999 -0.00041304762 -0.0019577425
0.012499999 -0.00030451827 -0.0019286913
0.012499999 0.00097159809 -0.0019841329
-0.012499999 0.0033709868 -0.0019504856
0.012499999 0.0044526812 -0.0019875406
0.012499999 0.0045541925 -0.0019017095
0.012499999 0.0048484607 -0.0019639814
0.012499999 0.0083721168 -0.001980287
0.012499999 0.0091397455 -0.0019793804
0.012499999 0.010376201 -0.0019332501
-0.012499999 0.012247127 -0.0019240584
0.012499999 0.012252331 -0.0019739424
-0.012342968 0.012499999 -0.001994635
-0.010443561 0.012499999 -0.0019603819
-0.0055177445 0.012499999 -0.0019504856
0.00077339588 0.012499999 -0.0019643381
0.0059609055 0.012499999 -0.0019428642
0.0073345583 0.012499999 -0.001975209
-0.0081431549 -0.012499999 -0.0018049362
-0.0017755574 -0.012499999 -0.0018431684
-0.0010403511 -0.012499999 -0.0018491817
4.826521e-06 -0.012499999 -0.0018693982
0.00059856183 -0.012499999 -0.0018523586
0.010690262 -0.012499999 -0.0018931767
-0.012499999 -0.010532474 -0.0018214681
-0.012499999 -0.010257188 -0.0018656435
-0.012499999 -0.010017376 -0.0018080049
0.012499999 -0.0084043685 -0.0018251701
-0.012499999 -0.0057844627 -0.0018786644
-0.012499999 -0.0055620656 -0.0018408225
0.012499999 -0.0022211727 -0.0018059446
0.012499999 -0.0017189654 -0.0018618116
0.012499999 -0.00036099833 -0.0018789219
0.012499999 0.00040244451 -0.0018134811
0.012499999 0.00051331706 -0.001863502
0.012499999 0.0050485004 -0.0018783393
-0.0050307559 0.012499999 -0.0018929541
-0.0035902807 0.012499999 -0.001844503
-0.0022613716 0.012499999 -0.0018750532
0.0045101368 0.012499999 -0.001838807
0.0074156504 0.012499999 -0.0018666424
0.011618128 0.012499999 -0.0018274988
-0.011650136 -0.012499999 -0.0017160636
-0.0075402423 -0.012499999 -0.0017394088
-0.0051744319 -0.012499999 -0.0017288669
-0.0049025514 -0.012499999 -0.0017601298
-0.0026823282 -0.012499999 -0.0017167535
0.0042485823 -0.012499999 -0.0017036923
0.0069851317 -0.012499999 -0.0017915806
0.010872494 -0.012499999 -0.0017309287
0.012472345 -0.012499999 -0.0017394014
-0.012499999 -0.011856977 -0.0017058668
-0.012499999 -0.010984511 -0.0017444268
-0.012499999 -0.010414876 -0.0017763074
-0.012499999 -0.010106996 -0.0017166003
0.012499999 -0.0068196543 -0.0017718371
0.012499999 -0.00596039 -0.0017284346
-0.012499999 -0.0033471934 -0.0017948635
-0.012499999 -8.6383894e-05 -0.0017256709
0.012499999 0.00055476092 -0.0017832597
0.012499999 0.0016914336 -0.0017372826
-0.012499999 0.0056174579 -0.0017001713
0.012499999 0.0071745515 -0.0017453907
-0.012499999 0.0073161246 -0.0017731888
0.012499999 0.0077990438 -0.0017729155
-0.012499999 0.0083503071 -0.0017638309
0.012499999 0.012131233 -0.0017205896
-0.0067256754 0.012499999 -0.0017845416
-0.0045020962 0.012499999 -0.0017169518
0.0042860829 0.012499999 -0.001739074
0.0063458844 0.012499999 -0.0017086049
-0.0036011436 -0.012499999 -0.0016322332
-0.0002442355 -0.012499999 -0.0016481737
0.0043166899 -0.012499999 -0.0016005681
0.0046728863 -0.012499999 -0.0016903711
-0.012499999 -0.0085615171 -0.0016239646
-0.012499999 -0.007082507 -0.0016181516
0.012499999 -0.0047876388 -0.0016440507
-0.012499999 -0.004412692 -0.0016988672
0.012499999 -0.00087141991 -0.0016291924
0.012499999 0.0029735258 -0.0016984944
0.012499999 0.0039297845 -0.0016412567
-0.012499999 0.0055511533 -0.001628804
-0.012499999 0.00576135 -0.0016900953
-0.012499999 0.0079554757 -0.0016031312
0.012499999 0.0086812358 -0.0016509229
-0.012499999 0.01199655 -0.0016483646
-0.011079792 0.012499999 -0.0016065119
-0.0046579544 0.012499999 -0.0016806824
0.0037197587 0.012499999 -0.0016714996
0.0045011654 0.012499999 -0.0016755937
0.010525761 0.012499999 -0.0016887257
0.011933975 0.012499999 -0.0016065055
0.0090168836 -0.012499999 -0.00159215
0.010531914 -0.012499999 -0.0015545459
-0.012499999 -0.01128242 -0.0015105335
0.012499999 -0.011224238 -0.0015646088
-0.012499999 -0.010680905 -0.0015763915
-0.012499999 -0.0091790026 -0.0015074157
0.012499999 -0.0068571344 -0.0015738051
0.012499999 -0.0066346452 -0.0015639147
-0.012499999 -0.0053941905 -0.0015579019
-0.012499999 -0.0033289159 -0.0015924301
-0.012499999 -0.0024482694 -0.0015889255
0.012499999 0.00075604953 -0.0015398632
-0.012499999 0.0020822855 -0.0015868926
-0.012499999 0.0053320089 -0.0015101833
-0.012499999 0.0069752024 -0.0015414609
-0.012499999 0.0078993626 -0.0015040562
-0.012499999 0.010533611 -0.001550287
-0.011642043 0.012499999 -0.0015990734
-0.0061515514 0.012499999 -0.0015977202
-0.0057629263 0.012499999 -0.0015441775
-0.0031253316 0.012499999 -0.001533309
0.00072357059 0.012499999 -0.0015037158
0.0069156736 0.012499999 -0.0015504106
0.0090751816 0.012499999 -0.0015783852
-0.011762418 -0.012499999 -0.0014430422
-0.010382423 -0.012499999 -0.0014593401
-0.0089305956 -0.012499999 -0.001422563
-0.0048531611 -0.012499999 -0.0014776408
0.0015894428 -0.012499999 -0.0014702601
0.0023314469 -0.012499999 -0.0014548815
0.0046618963 -0.012499999 -0.0014563277
0.007556119 -0.012499999 -0.0014485139
0.0076306849 -0.012499999 -0.0014199237
0.0079575581 -0.012499999 -0.0014351516
0.011258013 -0.012499999 -0.0014225913
-0.012499999 -0.010025046 -0.0014219936
-0.012499999 -0.0088583687 -0.0014793023
0.012499999 -0.0087150205 -0.0014593583
0.012499999 -0.0081413053 -0.0014177701
-0.012499999 -0.0078422762 -0.0014164848
-0.012499999 -0.0062450464 -0.0014483286
0.012499999 0.0041543627 -0.0014471416
-0.012499999 0.0045074061 -0.0014494704
0.012499999 0.0055076918 -0.0014006468
-0.012499999 0.007567591 -0.0014645029
0.012499999 0.0089221662 -0.0014730566
0.012499999 0.011721123 -0.0014178436
-0.011009987 0.012499999 -0.0014658673
-0.0073854653 0.012499999 -0.0014556218
0.00064915186 0.012499999 -0.001402217
0.0020622462 0.012499999 -0.0014223037
0.004222902 0.012499999 -0.0014282679
0.0045078942 0.012499999 -0.0014507505
0.0080491584 0.012499999 -0.0014688873
-0.0093483888 -0.012499999 -0.0013472702
-0.0059526376 -0.012499999 -0.0013062542
0.00084274943 -0.012499999 -0.0013044362
0.0030591218 -0.012499999 -0.0013601856
0.0057041561 -0.012499999 -0.0013329333
0.012499999 -0.0017858772 -0.0013574692
0.012499999 -0.0011976603 -0.0013932246
0.012499999 -0.00067599583 -0.0013308823
-0.012499999 -0.0003972291 -0.0013671871
0.012499999 8.574361e-05 -0.0013045138
-0.012499999 0.00064531947 -0.0013382733
0.012499999 0.0016781129 -0.0013731848
-0.012499999 0.0035514014 -0.0013733758
0.012499999 0.0037972711 -0.0013791863
-0.012499999 0.010240372 -0.0013658125
-0.012499999 0.01048774 -0.0013816226
-0.012499999 0.010500441 -0.0013231039
0.012499999 0.010862289 -0.0013082353
0.012499999 0.011279097 -0.0013124971
-0.0052970313 0.012499999 -0.0013424065
-0.0043417085 0.012499999 -0.0013341382
-0.00040852977 0.012499999 -0.0013671871
0.00057091704 0.012499999 -0.0013768123
0.0052283071 0.012499999 -0.0013967685
0.0054235794 0.012499999 -0.0013190105
-0.00497965 -0.012499999 -0.0012770672
0.0039235023 -0.012499999 -0.0012448233
0.0049718721 -0.012499999 -0.0012318997
0.0061257505 -0.012499999 -0.0012181718
0.0087945815 -0.012499999 -0.0012707158
-0.012499999 -0.011682491 -0.0012650257
0.012499999 -0.011191253 -0.0012739836
0.012499999 -0.0082840398 -0.00121999
-0.012499999 -0.0074356282 -0.00120393
0.012499999 -0.0073585846 -0.0012368222
-0.012499999 -0.0066159312 -0.0012382781
0.012499999 -0.0051517561 -0.0012133913
-0.012499999 0.0008375952 -0.001283722
0.012499999 0.0050263945 -0.0012233462
0.012499999 0.0065756324 -0.001214047
0.012499999 0.0068289433 -0.0012682574
-0.012499999 0.0091671208 -0.0012511658
-0.0064747897 0.012499999 -0.0012671072
-0.0022638901 0.012499999 -0.0012629498
-0.0019361286 0.012499999 -0.0012080995
0.0017644996 0.012499999 -0.001254742
0.0032961816 0.012499999 -0.0012686327
0.0044021499 0.012499999 -0.0012691044
0.010027075 0.012499999 -0.0012129997
-0.011198498 -0.012499999 -0.0011001665
-0.010145724 -0.012499999 -0.0011062323
-0.0094628874 -0.012499999 -0.0011839089
-0.0078443997 -0.012499999 -0.0011726194
-0.0068605822 -0.012499999 -0.0011903094
0.0022802153 -0.012499999 -0.0011631763
0.0064343847 -0.012499999 -0.0011658028
0.010995112 -0.012499999 -0.0011698687
0.011956729 -0.012499999 -0.0011990522
-0.012499999 -0.011478575 -0.0011906768
-0.012499999 -0.010423639 -0.0011259634
0.012499999 -0.010145303 -0.0011918605
0.012499999 -0.0082123354 -0.001112893
0.012499999 -0.0077301711 -0.0011409021
0.012499999 -0.0076980889 -0.0011675457
0.012499999 -0.0071204021 -0.0011527638
0.012499999 -0.0070882961 -0.0011551912
0.012499999 -0.005089514 -0.0011995102
0.012499999 0.004141124 -0.0011441279
0.012499999 0.0080957534 -0.0011399295
0.012499999 0.010572156 -0.0011971593
0.012499999 0.011016947 -0.0011668252
-0.0092982147 0.012499999 -0.0011201594
-0.0068532932 0.012499999 -0.0011012405
0.003289538 0.012499999 -0.0011491235
-0.0091713276 -0.012499999 -0.0010492095
-0.0074577443 -0.012499999 -0.0010443218
-0.0044674748 -0.012499999 -0.0010219929
-0.0013375832 -0.012499999 -0.0010863207
0.00021999289 -0.012499999 -0.0010960002
0.0013679055 -0.012499999 -0.0010830149
0.012499999 -0.010977747 -0.0010835438
0.012499999 -0.006449338 -0.0010059492
-0.012499999 -0.0059322179 -0.0010043192
-0.012499999 -0.003277512 -0.0010337236
-0.012499999 -0.0029353548 -0.0010433902
-0.012499999 -0.0022590295 -0.0010334628
0.012499999 -0.0018205494 -0.0010773861
0.012499999 -0.0013251724 -0.0010792967
0.012499999 0.0072149551 -0.001070464
0.012499999 0.0081184432 -0.0010779751
-0.012499999 0.010589832 -0.0010893149
0.012499999 0.01184479 -0.0010980312
-0.012025763 0.012499999 -0.0010245983
-4.8100483e-05 0.012499999 -0.0010062512
0.0019696113 0.012499999 -0.0010802746
0.010286365 0.012499999 -0.00102106
-0.011785991 -0.012499999 -0.00094964297
0.0012328443 -0.012499999 -0.00099376892
-0.012499999 -0.011649078 -0.0009995643
-0.012499999 -0.010686547 -0.00092718098
-0.012499999 -0.0099089528 -0.00090431981
-0.012499999 -0.0094440719 -0.00096671446
-0.012499999 -0.0080008954 -0.00092075043
-0.012499999 -0.005438609 -0.00090452563
-0.012499999 -0.001828521 -0.00092132948
0.012499999 -0.00084643345 -0.00098316139
-0.012499999 -0.00031875679 -0.00095177162
-0.012499999 0.00065992726 -0.00091130007
-0.012499999 0.0010163276 -0.00098009966
-0.012499999 0.0018564491 -0.00093119591
0.012499999 0.0022371504 -0.00094433129
0.012499999 0.0063483561 -0.0009707706
0.012499999 0.0076905349 -0.00091712922
-0.012499999 0.0089014564 -0.00094397087
0.012499999 0.0090533243 -0.0009542387
0.012499999 0.009164894 -0.00090972148
-0.012499999 0.0095414687 -0.00091058947
0.012499999 0.011395412 -0.0009765625
-0.0098331179 0.012499999 -0.00095885992
-0.0096858833 0.012499999 -0.00099918805
-0.0077981809 0.012499999 -0.00099353492
-0.0050808443 0.012499999 -0.00092338305
-0.0020969869 0.012499999 -0.00096310955
-0.00047495682 0.012499999 -0.00095248036
0.0024078591 0.012499999 -0.00097749103
0.0037420862 0.012499999 -0.00090884231
-0.0087948851 -0.012499999 -0.00089248677
-0.0083147604 -0.012499999 -0.00080396538
-0.0082127955 -0.012499999 -0.00086205429
-0.0060793408 -0.012499999 -0.00085049961
0.0056676054 -0.012499999 -0.00086012646
0.0059165359 -0.012499999 -0.00083245407
0.01042567 -0.012499999 -0.00080652954
0.012499999 -0.0096565634 -0.00087131921
-0.012499999 -0.009280866 -0.00083525712
0.012499999 -0.0078556482 -0.00082010264
-0.012499999 -0.0072717634 -0.00080073485
-0.012499999 -0.004152583 -0.00087841053
0.012499999 -0.0025301808 -0.00080491509
-0.012499999 -0.002126582 -0.0008869723
0.012499999 -0.00098575931 -0.00089174416
-0.012499999 -0.00043850439 -0.00083571114
0.012499999 0.002933546 -0.00080976821
0.012499999 0.0032211442 -0.00086619286
-0.012499999 0.0033874419 -0.00086856633
0.012499999 0.0047035208 -0.00087111257
0.012499999 0.0060151727 -0.00082446076
-0.012499999 0.0077868472 -0.00089351088
0.012499999 0.0098477919 -0.00087357312
-0.012499999 0.012018537 -0.00081352331
-0.012499999 0.012164935 -0.00081566721
-9.3340408e-05 0.012499999 -0.00082354806
0.0012483913 0.012499999 -0.00085147982
-0.011308506 -0.012499999 -0.00079346972
-0.0094246417 -0.012499999 -0.0007064396
-0.0046730661 -0.012499999 -0.00079539604
-0.0042097806 -0.012499999 -0.00075594243
0.0023860401 -0.012499999 -0.00072109199
0.0034042022 -0.012499999 -0.00070192409
-0.012499999 -0.011570579 -0.00070950482
-0.012499999 -0.011429273 -0.00078507466
-0.012499999 -0.010648651 -0.00072444836
-0.012499999 -0.0074230256 -0.00077720638
0.012499999 -0.0074175652 -0.00070433738
0.012499999 -0.0069657099 -0.00072659552
0.012499999 -0.0044803973 -0.00078659318
-0.012499999 -0.0043834206 -0.0007288527
0.012499999 -0.003612393 -0.0007038482
-0.012499999 0.0025357052 -0.00078842975
0.012499999 0.0033014072 -0.00072442181
-0.012499999 0.0045346366 -0.0007431386
0.012499999 0.0067578447 -0.00077962317
0.012499999 0.010686468 -0.00078125019
-0.012499999 0.011646034 -0.0007056389
0.012499999 0.011642939 -0.0007098522
-0.0082408218 0.012499999 -0.0007251231
-0.0054727099 0.012499999 -0.00074457843
-0.0044626812 0.012499999 -0.00071791001
-0.0098711681 -0.012499999 -0.00065794482
-0.009203868 -0.012499999 -0.00065757218
-0.00027280735 -0.012499999 -0.00061658607
0.0037405493 -0.012499999 -0.00063802092
0.0047704466 -0.012499999 -0.00068317261
-0.012499999 -0.011546131 -0.00062557543
0.012499999 -0.011373308 -0.00062891579
-0.012499999 -0.0096195843 -0.00060898764
-0.012499999 -0.0084153041 -0.00067478651
0.012499999 -0.0083660129 -0.00064952113
0.012499999 -0.007628087 -0.00065644353
0.012499999 -0.0060757487 -0.00063279038
0.012499999 0.00027618371 -0.00066265464
-0.012499999 0.0031559691 -0.00066585839
-0.012499999 0.0041409507 -0.00065353978
0.012499999 0.0051559447 -0.00067270361
-0.012499999 0.006333543 -0.00063031726
-0.012499999 0.0071110488 -0.00065933727
0.012499999 0.0077128243 -0.00069934176
-0.012499999 0.0093292929 -0.00062668603
-0.0082535092 0.012499999 -0.00066078734
-0.0075189536 0.012499999 -0.00067237578
-0.00069209374 0.012499999 -0.00064048171
0.0097917356 0.012499999 -0.00069558097
0.010480156 0.012499999 -0.00060096115
-0.0098958798 -0.012499999 -0.00057406013
-0.0034092795 -0.012499999 -0.00055786315
-0.0025073225 -0.012499999 -0.00056683132
0.0015631996 -0.012499999 -0.00053438015
0.0057735415 -0.012499999 -0.00059636915
0.010108891 -0.012499999 -0.00056456774
-0.012499999 -0.008797057 -0.00058427779
0.012499999 -0.0072101187 -0.00054689101
-0.012499999 -0.0047649415 -0.00057466119
-0.012499999 -0.004118647 -0.00055146869
-0.012499999 -0.0014643869 -0.00058330665
-0.012499999 -0.0007979736 -0.00055917806
-0.012499999 5.4304022e-05 -0.00051651895
-0.012499999 0.00052155834 -0.0005362872
0.012499999 0.00059154164 -0.00059590256
0.012499999 0.0039485199 -0.00058913976
-0.012499999 0.0048223389 -0.00055967551
0.012499999 0.0054754694 -0.00057595805
0.012499999 0.0058524115 -0.0005563572
0.012499999 0.0060268976 -0.00051093055
0.012499999 0.01160532 -0.00050456822
-0.01171339 0.012499999 -0.00054433011
-0.0096174125 0.012499999 -0.00052311085
-0.006615832 0.012499999 -0.00057646073
-0.0059802216 0.012499999 -0.00052604079
0.0029574763 0.012499999 -0.00055592647
0.003426054 0.012499999 -0.0005794079
0.008860616 0.012499999 -0.00050554343
0.012485117 0.012499999 -0.00054383633
-0.012313142 -0.012499999 -0.0004487535
-0.0098468568 -0.012499999 -0.0004772445
-0.0059588403 -0.012499999 -0.00040733023
-0.00069118757 -0.012499999 -0.00045327237
0.0055425847 -0.012499999 -0.0004804231
0.0056473217 -0.012499999 -0.00049414532
0.0061081257 -0.012499999 -0.00049980241
0.008741294 -0.012499999 -0.0004885057
-0.012499999 -0.012119206 -0.00040763663
-0.012499999 -0.011855438 -0.00042930664
-0.012499999 -0.010618709 -0.00046245987
0.012499999 -0.0077725518 -0.00041862729
-0.012499999 -0.0068909568 -0.0004882561
0.012499999 -0.0050851759 -0.00044936757
-0.012499999 -0.0036497833 -0.00046278862
0.012499999 -0.0035477472 -0.0004906347
-0.012499999 -0.00030456763 -0.00049452018
-0.012499999 -0.00020810263 -0.00047175027
0.012499999 -0.00018328708 -0.00046581775
0.012499999 0.00089649949 -0.00046646781
0.012499999 0.0072902977 -0.0004048096
0.012499999 0.0089007821 -0.00048867799
-0.012499999 0.0098011624 -0.00047468953
-0.0097801778 0.012499999 -0.00047468953
-0.0069788005 0.012499999 -0.0004607169
-0.00063116616 0.012499999 -0.00049598794
0.001881686 0.012499999 -0.00041226763
0.0080198999 0.012499999 -0.00045581744
0.0087930933 0.012499999 -0.00044623739
0.0090078879 0.012499999 -0.00044030859
0.011553191 0.012499999 -0.00047278049
-0.0063933916 -0.012499999 -0.00035947654
-0.0038480177 -0.012499999 -0.00033225585
-0.0031493944 -0.012499999 -0.00035888515
-0.0028043268 -0.012499999 -0.00033409474
-0.00065933727 -0.012499999 -0.00038746046
0.0014056212 -0.012499999 -0.00033373473
-0.012499999 -0.0070081279 -0.00035243388
-0.012499999 -0.0039027138 -0.0003733231
-0.012499999 -0.0034075864 -0.00031656562
0.012499999 -0.0027681412 -0.00036907801
0.012499999 -0.00092693605 -0.00030930247
