# .PCD v0.7 - Point Cloud Data file format
VERSION 0.7
FIELDS x y z
SIZE 4 4 4
TYPE F F F
COUNT 1 1 1
WIDTH 1247
HEIGHT 1
VIEWPOINT 0 0 0 1 0 0 0
POINTS 1247
DATA ascii
-0.0042012166 -0.024999999 0.001825348
-0.00022757333 -0.024999999 0.0018440868
0.00073657651 -0.024999999 0.0018325429
0.001565116 -0.024999999 0.0018853227
0.0024456736 -0.024999999 0.0018863179
0.010839624 -0.024999999 0.0018162932
0.012499999 -0.019240759 0.0018019706
-0.012499999 -0.018568506 0.0018687783
-0.012499999 -0.01784005 0.0018296485
-0.012499999 -0.013062514 0.0018522077
-0.012499999 -0.011450199 0.0018796008
0.012499999 -0.0092114806 0.00184492
-0.012499999 -0.0063753766 0.0018362522
0.012499999 -0.002986378 0.0018554442
0.012499999 -0.00028166268 0.0018310717
-0.012499999 0.0013579666 0.0018716311
-0.012499999 0.0037997954 0.0018733114
0.012499999 0.0037917416 0.0018733256
-0.012499999 0.0060770717 0.0018474925
0.012499999 0.0061932267 0.0018830874
0.012499999 0.0067848954 0.0018652284
-0.012499999 0.009648812 0.0018347139
-0.012499999 0.011381039 0.0018052771
0.012499999 0.015302502 0.0018663453
-0.012499999 0.017061703 0.0018347139
0.012499999 0.017674526 0.0018842025
0.012499999 0.020602215 0.0018710925
-0.012499999 0.02218139 0.001848981
0.012499999 0.02313233 0.0018293883
0.012499999 0.023396783 0.0018506879
-0.012499999 0.023951054 0.0018856674
-0.0098979343 0.024999999 0.0018152411
-0.0090104416 0.024999997 0.0018315497
-0.0084313527 0.024999999 0.0018320773
-0.0080887778 0.024999999 0.0018331315
-0.0068451245 0.024999999 0.0018942209
-0.0037883171 0.024999999 0.0018741591
-0.0036234818 0.024999999 0.0018371819
0.0070390608 0.024999999 0.0018690343
0.0096492469 0.024999999 0.0018174911
-0.012258507 -0.024999999 0.0019449483
-0.0064165979 -0.024999999 0.0019471557
-0.0050775819 -0.024999999 0.0019837627
-0.0041440171 -0.024999999 0.0019725217
-0.0033582449 -0.024999999 0.0019993549
-0.012499999 -0.022320336 0.0019485933
-0.012499999 -0.02156987 0.0019033652
-0.012499999 -0.021131795 0.0019134012
0.012499999 -0.020998478 0.0019448446
-0.012499999 -0.018247556 0.0019574345
-0.012499999 -0.01007226 0.0019171975
0.012499999 -0.009748064 0.0019241873
-0.012499999 -0.0078066564 0.0019012091
0.012499999 -0.0055656629 0.0019759163
-0.012499999 -0.0051984889 0.0019303926
-0.012499999 -0.0019557762 0.0019087847
-0.012499999 -0.0001846985 0.0019952031
-0.012499999 0.0017431336 0.0019407675
0.012499999 0.0018648151 0.0019364234
0.012499999 0.0023286697 0.0019684741
-0.012499999 0.0041308971 0.0019597448
-0.012499999 0.0042827916 0.0019429484
-0.012499999 0.016468201 0.0019253783
-0.012499999 0.018969916 0.001917836
0.012499999 0.02016053 0.0019372536
-0.010657489 0.024999999 0.0019949982
0.0011697831 0.024999999 0.001985369
0.0039978367 0.024999999 0.0019291105
0.0073350389 0.024999999 0.0019682955
0.01041699 0.024999999 0.0019924361
-0.0089968015 -0.024999999 0.0020871204
-0.0065477248 -0.024999999 0.0020393196
-0.003571501 -0.024999999 0.0020018215
1.4504418e-05 -0.024999999 0.0020915766
0.00023179362 -0.024999999 0.0020785471
0.00060917391 -0.024999999 0.0020951875
0.012499999 -0.024805836 0.002071318
-0.012499999 -0.021338692 0.0020272075
-0.012499999 -0.021120001 0.0020033012
-0.012499999 -0.019747624 0.0020661093
-0.012499999 -0.018909419 0.0020323275
-0.012499999 -0.016986441 0.002052079
0.012499999 6.4251944e-05 0.0020793795
-0.012499999 0.0018449994 0.0020331719
0.012499999 0.0080115208 0.0020981226
-0.012499999 0.0094472282 0.0020983773
0.012499999 0.010633531 0.0020788349
0.012499999 0.010701777 0.0020948658
0.012499999 0.01464166 0.0020217905
-0.012499999 0.016498735 0.0020686435
0.012499999 0.017573826 0.0020178142
0.012499999 0.021479551 0.0020132947
-0.012499999 0.023100588 0.0020865689
-0.0055671842 0.024999997 0.0020905009
-0.0017276704 0.024999999 0.0020351727
0.00056259613 0.024999999 0.0020898317
0.0013836827 0.024999999 0.0020807746
0.0093867667 0.024999999 0.0020010697
-0.0077927709 -0.024999999 0.0021680552
-0.00034986995 -0.024999999 0.0021787321
0.0040619117 -0.024999999 0.0021549021
0.012499999 -0.021088783 0.0021163973
0.012499999 -0.018990859 0.0021822359
0.012499999 -0.016557064 0.0021626761
0.012499999 -0.014623895 0.0021387641
-0.012499999 -0.014444448 0.0021766257
0.012499999 -0.012733241 0.0021704999
0.012499999 -0.012489825 0.0021194394
-0.012499999 -0.0040185163 0.0021216616
0.012499999 -0.001377482 0.00213845
-0.012499999 5.7256315e-05 0.0021657511
-0.012499999 0.0022445361 0.0021573838
-0.012499999 0.0083570872 0.0021366025
-0.012499999 0.0086415447 0.0021795379
-0.012499999 0.0098733753 0.0021090927
0.012499999 0.012619043 0.0021987038
0.012499999 0.014646536 0.0021799225
0.012499999 0.016905118 0.0021973643
-0.012499999 0.020709585 0.00213857
-0.012499999 0.021428606 0.0021740121
-0.012499999 0.022184461 0.0021711418
-0.012499999 0.023945197 0.0021164408
-0.012244487 0.024999999 0.0021357252
-0.010400574 0.024999999 0.0021878202
-0.0017684707 0.024999999 0.0021781507
-0.00062361918 0.024999999 0.0021905696
0.002721223 0.024999999 0.0021288444
0.0044697225 0.024999999 0.0021050014
0.0062286258 0.024999999 0.0021890723
0.0094302967 0.024999999 0.0021424945
0.011000078 0.024999999 0.0021634516
-0.01112918 -0.024999999 0.002283596
-0.010648856 -0.024999999 0.0022326589
-0.0063817753 -0.024999999 0.0022377104
0.00029648514 -0.024999999 0.0022551061
0.0083702737 -0.024999999 0.0022646114
0.01119459 -0.024999999 0.0022311667
-0.012499999 -0.021186486 0.0022488844
-0.012499999 -0.018453337 0.0022348552
-0.012499999 -0.016888021 0.0022539254
0.012499999 -0.014489848 0.0022529543
0.012499999 -0.011353317 0.0022380734
0.012499999 -0.010300268 0.0022393726
0.012499999 -0.0091218073 0.0022332035
-0.012499999 -0.0068033403 0.0022131042
0.012499999 -0.0068203267 0.0022903839
0.012499999 -0.0067495294 0.002212896
0.012499999 -0.0050553819 0.0022222549
0.012499999 -0.003960046 0.00224707
0.012499999 -0.0027278597 0.00224707
0.012499999 -0.0025514294 0.0022394722
0.012499999 0.0029103342 0.0022656992
0.012499999 0.0053566629 0.0022996552
-0.012499999 0.0056472737 0.0022866903
0.012499999 0.0083323121 0.0022316026
-0.012499999 0.0089805145 0.0022337658
-0.012499999 0.0152368 0.0022301311
0.012499999 0.0155848 0.0022656992
-0.012499999 0.015810255 0.0022260528
-0.012499999 0.016638558 0.0022482425
0.012499999 0.019182337 0.0022251685
0.012499999 0.022036847 0.0022723414
-0.012499999 0.024252156 0.0022658543
-0.0097454041 0.024999999 0.0022488283
-0.00802847 0.024999999 0.0022028359
-0.00045696134 0.024999999 0.00225231
-0.00031760335 0.024999999 0.0022396368
0.0076876972 0.024999999 0.0022630088
0.010651739 0.024999999 0.0022460944
-0.010178968 -0.024999999 0.0023127852
0.0063337288 -0.024999999 0.0023007323
0.0088483645 -0.024999999 0.0023643996
-0.012499999 -0.022903549 0.0023627291
0.012499999 -0.021059804 0.0023862359
0.012499999 -0.01630386 0.0023162339
0.012499999 -0.014288411 0.0023458139
0.012499999 -0.013819557 0.0023676236
-0.012499999 -0.011059922 0.0023009439
0.012499999 -0.0087395106 0.0023358455
0.012499999 -0.0057184347 0.0023062713
0.012499999 -0.0028495439 0.0023292536
-0.012499999 -0.0026462602 0.0023334585
-0.012499999 -0.0024231318 0.0023845767
0.012499999 -0.0011894219 0.0023915414
-0.012499999 0.0015797582 0.0023843192
0.012499999 0.0024856813 0.0023424334
-0.012499999 0.0052174525 0.0023071023
0.012499999 0.0053287684 0.0023857793
0.012499999 0.0090010464 0.0023242403
0.012499999 0.010515735 0.0023321547
-0.012499999 0.019718792 0.0023371456
0.012499999 0.02155124 0.0023594042
0.012499999 0.021950571 0.002370568
0.012499999 0.022468429 0.0023933742
-0.0022661095 0.024999999 0.0023126511
0.0021647047 0.024999999 0.002355878
0.0022477107 0.024999999 0.0023700327
0.0061597549 0.024999999 0.0023670876
0.012499999 0.024939308 0.0023734544
-0.011918359 -0.024999999 0.0024313191
-0.0070746578 -0.024999999 0.0024897512
0.0064533604 -0.024999999 0.0024250806
0.0077488297 -0.024999999 0.0024641459
-0.012499999 -0.023435542 0.0024040751
0.012499999 -0.021754399 0.0024151076
0.012499999 -0.021145858 0.0024776116
0.012499999 -0.01530258 0.0024375655
-0.012499999 -0.014293632 0.0024840774
-0.012499999 -0.0095983008 0.0024212627
-0.012499999 -0.0031871784 0.0024280639
-0.012499999 -0.0028010902 0.0024617931
-0.012499999 -0.0004871171 0.002445722
0.012499999 0.00051437784 0.0024095895
-0.012499999 0.0018155938 0.0024849849
-0.012499999 0.0051593939 0.0024669953
-0.012499999 0.011518117 0.0024301065
0.012499999 0.013635901 0.0024824322
0.012499999 0.013944875 0.0024098502
0.012499999 0.017277854 0.0024101119
-0.012499998 0.017836766 0.0024399678
-0.012499999 0.019082487 0.0024959566
-0.012499999 0.02174945 0.0024972111
-0.012499999 0.021895111 0.0024467639
0.012499999 0.021947438 0.0024857989
0.012499999 0.022862699 0.0024421867
-0.012499999 0.023220062 0.0024098523
-0.011163821 0.024999999 0.0024264152
-0.011000774 0.024999999 0.0024641205
-0.01067318 0.024999999 0.0024972111
-0.0041614552 0.024999999 0.0024470999
0.00071718823 0.024999999 0.0024805365
0.0024110572 0.024999999 0.0024853444
0.0042097792 0.024999999 0.0024805451
0.0046018376 0.024999999 0.0024133739
0.0063767284 0.024999999 0.0024100114
0.0087877177 0.024999999 0.0024647627
0.010369917 0.024999999 0.0024003331
0.01170457 0.024999999 0.0024409357
-0.011691958 -0.024999999 0.0025958794
0.001859501 -0.024999999 0.0025916633
0.0089753205 -0.024999999 0.0025954815
0.012499999 -0.016400721 0.0025176732
-0.012499999 -0.016064024 0.0025967243
0.012499999 -0.013565194 0.0025842399
0.012499999 -0.013077423 0.0025729979
0.012499999 -0.012749415 0.0025707579
0.012499999 -0.011984783 0.0025810841
-0.012499999 -0.011315614 0.0025593643
-0.012499999 -0.00919881 0.0025918218
0.012499999 -0.0087526664 0.0025433463
0.012499999 -0.005148706 0.0025700526
0.012499999 -0.0037611444 0.0025430899
-0.012499999 -0.0029817361 0.0025482615
-0.012499999 -0.0020376742 0.0025862237
-0.012499999 0.0010391758 0.002509549
-0.012499999 0.0013206154 0.0025397174
-0.012499999 0.0015749838 0.0025489891
0.012499999 0.0031457846 0.0025451465
0.012499999 0.0038898189 0.0025774846
-0.012499999 0.0059703076 0.0025959259
0.012499999 0.0076024993 0.0025320223
0.012499999 0.0095482357 0.002526355
0.012499999 0.0097853001 0.0025994871
0.012499999 0.014358921 0.0025366563
-0.012499999 0.014423991 0.0025823014
0.012499999 0.014728393 0.0025843987
0.012499999 0.01546042 0.0025242933
-0.012499999 0.016418235 0.0025236569
-0.012499999 0.018823018 0.0025452143
-0.012499999 0.021050852 0.0025617899
-0.012499999 0.021184895 0.0025541298
-0.0059513152 0.024999999 0.0025617899
-0.0053104833 0.024999999 0.0025732545
-0.003073263 0.024999999 0.0025440976
0.00018554367 0.024999999 0.0025775046
0.00059322268 0.024999999 0.0025835512
0.0083312485 0.024999999 0.0025378219
-0.011908593 -0.024999999 0.0026565709
-0.011793844 -0.024999999 0.0026313642
-0.0064935759 -0.024999999 0.0026496002
0.00074063009 -0.024999999 0.0026391053
0.01112 -0.024999999 0.0026174295
0.012499999 -0.024134196 0.0026185173
-0.012499999 -0.021722117 0.0026309113
-0.012499999 -0.020406997 0.0026935777
0.012499999 -0.019622814 0.0026958927
0.012499999 -0.016763091 0.0026668608
-0.012499999 -0.014007661 0.0026701067
-0.012499999 -0.010640084 0.0026645535
-0.012499999 -0.0096925497 0.0026070029
-0.012499999 -0.0050381254 0.0026686145
-0.012499999 -0.0043644812 0.0026756679
0.012499999 -0.001408272 0.0026747882
0.012499999 0.00012035575 0.0026790935
-0.012499999 0.0036467956 0.0026124958
0.012499999 0.0036251952 0.002691743
0.012499999 0.0045672664 0.0026583085
-0.012499999 0.0091646509 0.0026982215
0.012499999 0.011114165 0.0026861792
-0.012499999 0.020609658 0.0026788143
-0.012499999 0.022432834 0.0026629742
0.012499999 0.023948021 0.0026902258
-0.0042032399 0.024999999 0.0026213392
-3.9735809e-05 0.024999999 0.0026461324
0.0093243681 0.024999999 0.0026374699
0.012022415 0.024999999 0.0026941437
0.012137648 0.024999999 0.0026695868
-0.010334852 0.025 0.0026814621
-0.012087276 -0.024999999 0.0027037682
-0.0083788056 -0.024999999 0.0027296329
-0.0064905621 -0.024999999 0.0027630734
-0.0041857925 -0.024999999 0.0027765788
0.0075910361 -0.024999999 0.0027644392
0.0083735008 -0.024999999 0.0027676609
0.0087952111 -0.024999999 0.00278575
0.0099770278 -0.024999999 0.0027072188
-0.012499999 -0.02180722 0.0027750041
-0.012499999 -0.02105842 0.0027428828
0.012499999 -0.018171571 0.0027166316
-0.012499999 -0.017956115 0.0027577314
0.012499999 -0.017080668 0.0027121161
-0.012499999 -0.016847871 0.0027006543
-0.012499999 -0.015032168 0.0027302923
-0.012499999 -0.014532948 0.0027944956
0.012499999 -0.011816278 0.0027806289
-0.012499999 -0.010097108 0.0027654483
-0.012499999 -0.0093692336 0.002711389
-0.012499999 -0.0062156222 0.0027819767
-0.012499999 -0.0041242349 0.0027089398
-0.012499999 -0.0029049441 0.002760753
0.012499999 -0.00027677789 0.0027922802
-0.012499999 0.0023596385 0.0027980765
-0.012499999 0.0039547347 0.0027104088
0.012499999 0.0057910942 0.0027366253
0.012499999 0.0083599407 0.0027451718
-0.012499999 0.0095386412 0.0027017591
-0.012499999 0.010173419 0.0027602429
-0.012499999 0.010960516 0.0027154195
-0.012499999 0.01325955 0.0027987426
-0.012499999 0.017065454 0.0027399859
-0.012499999 0.01975576 0.0027267954
-0.012499999 0.021822136 0.0027618909
0.012499999 0.024174318 0.0027867807
-0.012198098 0.024999999 0.0027741278
-0.0040089586 0.024999999 0.0027970783
-0.0036525372 0.024999999 0.002723285
0.0013795616 0.024999999 0.0027412851
0.0072705075 0.024999999 0.002734391
-0.0037971865 -0.024999999 0.0028413855
0.0043927669 -0.024999999 0.0028821197
0.0050987117 -0.024999999 0.0028073271
0.0071092509 -0.024999999 0.0028457132
-0.012499999 -0.024721021 0.002891887
-0.012499999 -0.023781566 0.0028702281
0.012499999 -0.023206193 0.002870952
0.012499999 -0.022617809 0.0028917193
-0.012499999 -0.016807783 0.0028574015
0.012499999 -0.013818573 0.0028262979
-0.012499999 -0.012648117 0.0028573754
0.012499999 -0.0079960469 0.0028803078
0.012499999 -0.007717873 0.0028704051
-0.012499999 -0.0075916713 0.0028412002
-0.012499999 -0.00065083196 0.0028189323
0.012499999 -0.00065641943 0.0028694135
0.012499999 0.0013600029 0.0028072624
-0.012499999 0.002584727 0.002881384
-0.012499999 0.0082927644 0.0028045091
-0.012499998 0.015251279 0.0028963224
0.012499999 0.021552403 0.0028115027
-0.012499999 0.021801362 0.0028646265
-0.0093828039 0.024999999 0.0028611245
-0.0045005283 0.024999999 0.0028428258
0.0020169886 0.024999999 0.0028066169
0.0059702024 0.024999999 0.0028117255
0.0071344916 0.024999999 0.0028690272
0.0083838291 0.024999999 0.0028986288
0.01031857 0.024999999 0.0028436165
-0.0060721543 -0.024999999 0.0029965343
-0.0058920705 -0.024999999 0.0029319008
-0.00027170498 -0.024999999 0.0029660342
0.0013048276 -0.024999999 0.0029113789
0.0019404734 -0.024999999 0.0029578975
0.0030449782 -0.024999999 0.0029497859
0.0035549854 -0.024999999 0.0029422725
0.0094954278 -0.024999999 0.0029899951
0.012499999 -0.022874277 0.0029280386
0.012499999 -0.018704634 0.002978229
-0.012499999 -0.015322708 0.0029874418
-0.012499999 -0.013963995 0.0029522202
0.012499999 -0.011527287 0.0029414601
0.012499999 -0.0094441148 0.0029284265
0.012499999 -0.0085069891 0.0029772662
0.012499999 -0.007645119 0.0029672254
-0.012499999 -0.0075727953 0.0029851175
0.012499999 -0.0071639288 0.0029872954
0.012499999 -0.0058321333 0.0029453908
-0.012499999 -0.0015894282 0.0029627671
-0.012499999 -0.00010511931 0.0029960368
0.012499999 -9.7724609e-05 0.0029929169
-0.012499999 0.0010040333 0.0029356014
-0.012499999 0.0028193886 0.0029845177
-0.012499999 0.0034521651 0.0029713858
-0.012499999 0.0072799809 0.0029132888
-0.012499999 0.0094677405 0.0029609015
0.012499999 0.010336821 0.0029205482
-0.012499999 0.010701347 0.0029764478
0.012499999 0.012706481 0.0029510388
0.012499999 0.015461203 0.0029082233
0.012499999 0.019604465 0.0029500565
-0.012499999 0.021793254 0.0029956084
0.012499999 0.023736889 0.0029249806
-0.012499999 0.024372544 0.0029708445
-0.011051599 0.024999999 0.0029941462
-0.0076119844 0.024999999 0.0029621532
-0.00031603687 0.024999999 0.0029966056
0.0036655753 0.024999999 0.0029874251
0.0045984909 0.024999999 0.0029062419
0.0071505141 0.024999999 0.0029626139
0.0073273443 0.024999999 0.002900138
-0.009382844 -0.024999999 0.0030301092
-0.0012525525 -0.024999999 0.0030243318
0.0012954618 -0.024999999 0.0030330406
0.0040811473 -0.024999999 0.0030979626
0.004532781 -0.024999999 0.0030890866
0.01038368 -0.024999999 0.0030802626
-0.012499999 -0.023892727 0.0030631162
-0.012499999 -0.021636685 0.0030490011
0.012499999 -0.018332094 0.0030321388
0.012499999 -0.017229978 0.0030080995
-0.012499999 -0.017032946 0.0030501811
0.012499999 -0.016823333 0.0030025337
0.012499999 -0.016277991 0.0030115219
0.012499999 -0.015697237 0.0030322827
0.012499999 -0.01495561 0.0030154719
-0.012499999 -0.014390462 0.003097889
-0.012499999 -0.014220765 0.0030712804
0.012499999 -0.012232872 0.0030365465
-0.012499999 -0.011072278 0.0030401009
-0.012499999 -0.0052460507 0.0030289057
-0.012499999 -0.0051301224 0.0030524568
0.012499999 -0.0034172097 0.0030460246
-0.012499999 -0.0030934238 0.0030876005
0.012499999 -0.00048449682 0.0030666478
-0.012499999 0.00024701329 0.0030424534
-0.012499999 0.0047135078 0.0030901399
0.012499999 0.0052782046 0.0030236505
0.012499999 0.0062505533 0.0030700397
0.012499999 0.0078180721 0.0030486959
0.012499999 0.011671014 0.0030333856
-0.012499999 0.012868976 0.0030102711
0.012499999 0.014534229 0.0030416513
-0.0125 0.018208079 0.0030338829
0.012499999 0.01830758 0.0030338718
-0.012499998 0.019390211 0.0030168931
-0.012499999 0.020278648 0.0030839378
-0.012499999 0.020321559 0.0030801732
0.012499999 0.021028038 0.0030253548
0.012499999 0.02390955 0.0030939917
-0.0081055639 0.024999999 0.0030907271
0.0028441558 0.024999999 0.0030461003
0.0074715987 0.024999999 0.0030332231
-0.012119448 -0.024999999 0.0031203178
0.00056434562 -0.024999999 0.0031422616
0.00096250139 -0.024999999 0.003137033
0.010966996 -0.024999999 0.0031664399
0.012499999 -0.024493899 0.003147067
0.012499999 -0.023979452 0.0031510023
0.012499999 -0.021558993 0.0031127634
0.012499999 -0.020718142 0.0031584741
0.012499999 -0.0080808885 0.0031601954
-0.012499999 -0.0060019768 0.0031145122
-0.012499999 -0.0055556726 0.0031824759
0.012499999 -0.0019052844 0.0031534769
-0.012499999 -0.0013055215 0.0031058607
0.012499999 0.00084779738 0.0031308839
-0.012499999 0.0012172051 0.0031711166
-0.012499999 0.003896547 0.0031709839
-0.012499999 0.0064073624 0.0031910199
-0.012499999 0.0080249142 0.0031394316
0.012499999 0.014031777 0.0031714626
-0.012499999 0.015585859 0.0031548766
0.012499999 0.015884086 0.0031012371
-0.012499999 0.017021816 0.0031249151
-0.012499999 0.017163031 0.0031734724
0.012499999 0.018906493 0.0031803222
-0.012499999 0.021391816 0.0031302695
-0.009247249 0.024999999 0.0031241511
-0.0068845982 0.024999999 0.0031961068
-0.0039730933 0.024999999 0.0031108027
0.0022961302 0.024999999 0.0031355619
0.0045806332 0.024999999 0.003156675
0.011663558 0.024999999 0.0031506349
-0.01011496 -0.024999999 0.0032295571
-0.001881686 -0.024999999 0.0032509775
-0.00085714739 -0.024999999 0.003216913
0.0039842841 -0.024999999 0.0032888593
0.0051504336 -0.024999999 0.0032490809
0.0055273157 -0.024999999 0.0032428619
0.0118825 -0.024999999 0.0032819416
0.012010362 -0.024999999 0.003261067
-0.012499999 -0.024199486 0.0032267468
0.012499999 -0.022871885 0.0032627895
-0.012499999 -0.022649562 0.0032855344
0.012499999 -0.022554483 0.0032988987
-0.012499999 -0.022265999 0.0032792077
0.012499999 -0.017151315 0.0032707159
0.012499999 -0.016440321 0.0032141986
-0.012499999 -0.014096652 0.0032296441
-0.012499999 -0.013750214 0.0032571978
-0.012499999 -0.012658311 0.003207634
0.012499999 -0.010943403 0.0032228271
0.012499999 -0.0073402459 0.0032073287
-0.012499999 -0.0017190888 0.0032663471
-0.012499999 -0.0012434921 0.0032737027
0.012499999 0.0004775268 0.003219015
-0.012499999 0.00071487669 0.0032478208
0.012499999 0.0016568904 0.0032356838
0.012499999 0.0017765695 0.0032380624
-0.012499999 0.0020093699 0.0032325392
-0.012499999 0.0027911793 0.00325209
-0.012499999 0.0031847688 0.0032156412
0.012499999 0.0033254437 0.0032689311
0.012499999 0.0082324343 0.0032608679
-0.012499999 0.013879542 0.0032982752
0.012499999 0.014115245 0.0032054195
-0.012499999 0.014449187 0.0032126121
0.012499999 0.015039539 0.0032667974
0.012499999 0.015327445 0.0032192534
0.012499999 0.01673837 0.0032394892
-0.012499999 0.021199897 0.0032804422
0.012499999 0.022960208 0.003299461
-0.012499999 0.02439836 0.0032427299
-0.010950896 0.024999999 0.0032675457
0.0039602201 0.024999999 0.0032143812
0.0040018838 0.024999999 0.0032418969
-0.012499999 -0.024917327 0.0033108075
-0.0096995663 -0.024999999 0.0033721479
-0.007651763 -0.024999999 0.0033347132
-0.0037232875 -0.024999999 0.0033528632
0.006688016 -0.024999999 0.0033341218
0.0093547273 -0.024999999 0.0033965418
0.010914591 -0.024999999 0.003375717
-0.012499999 -0.024176894 0.0033609294
0.012499999 -0.022673056 0.0033304642
-0.012499999 -0.01826445 0.0033920747
0.012499999 -0.014382478 0.0033992978
-0.012499999 -0.013061448 0.0033999407
0.012499999 -0.0097391624 0.0033305977
0.012499999 -0.0093560014 0.0033164576
-0.012499999 -0.0079666721 0.0033480972
0.012499999 -0.0055538779 0.0033576402
-0.012499999 -0.0046430747 0.0033748304
-0.012499999 -0.0035925971 0.0033156911
0.012499999 -1.3085082e-07 0.0033228237
0.012499999 0.0014880085 0.0033946668
0.012499999 0.0015883218 0.003371249
-0.012499999 0.0041023465 0.0033730157
-0.012499999 0.0053953938 0.0033461242
-0.012499999 0.0068274927 0.0033790753
-0.012499999 0.0096599869 0.0033002789
-0.012499999 0.010567306 0.0033449214
-0.012499999 0.011827428 0.0033701945
0.012499999 0.015284581 0.0033404834
-0.012499999 0.017901035 0.0033791885
0.012499999 0.017965678 0.0033637071
-0.012499999 0.018164124 0.0033458648
0.012499999 0.02132817 0.0033754688
0.012499999 0.022394363 0.0033270651
-0.012499999 0.023766356 0.0033800269
-0.012499999 0.024211535 0.0033591441
-0.01134461 0.024999999 0.0033791885
-0.0054579079 0.024999999 0.0033997553
-0.0044057164 0.024999999 0.0033892379
-0.0029396573 0.024999999 0.003327959
0.0029352484 0.024999999 0.0033579951
0.011779316 0.024999999 0.0033443314
-0.0083124693 -0.024999999 0.0034427489
0.001677325 -0.024999999 0.0034477406
0.0075610466 -0.024999999 0.0034550016
0.012499999 -0.023253649 0.0034158239
-0.012499999 -0.020414112 0.0034836361
-0.012499999 -0.01896145 0.0034223646
0.012499999 -0.018515695 0.0034385286
0.012499999 -0.017474968 0.0034769159
0.012499999 -0.017307591 0.0034804747
-0.012499999 -0.016632278 0.003491682
-0.012499999 -0.0094592264 0.0034133035
0.012499999 -0.0066397763 0.0034967875
-0.012499999 -0.0044886735 0.0034485441
0.012499999 -0.0032486366 0.0034177927
0.012499999 -0.00064104144 0.0034180265
0.012499999 0.0034388779 0.0034717666
-0.012499999 0.0047057411 0.003409171
0.012499999 0.0055888272 0.0034752451
-0.012499999 0.0057890578 0.0034225096
-0.012499999 0.0077799349 0.0034731878
0.012499999 0.0080376072 0.0034021484
0.012499999 0.012330385 0.003478491
-0.012499999 0.018101498 0.0034497241
0.012499999 0.018475538 0.0034147594
-0.012499999 0.020157389 0.0034870456
0.0022793617 0.024999999 0.0034098588
0.0062911534 0.024999999 0.0034367694
-0.0088557042 -0.024999999 0.0035605698
-0.0086271781 -0.024999999 0.0035975054
-0.0057081115 -0.024999999 0.0035277689
-0.0055751144 -0.024999999 0.0035566825
-0.0012178365 -0.024999999 0.0035695718
0.0085910652 -0.024999999 0.0035325508
0.010448701 -0.024999999 0.0035333221
-0.0125 -0.024435626 0.0035654344
0.012499999 -0.023678675 0.0035501008
-0.012499999 -0.017796317 0.0035635976
-0.012499999 -0.016058013 0.0035365697
-0.012499999 -0.013974077 0.0035168878
0.012499999 -0.01351146 0.0035980495
0.012499999 -0.010149803 0.0035041878
-0.012499999 -0.0068213716 0.0035117401
-0.012499999 -0.0065233284 0.0035445737
0.012499999 0.00039609987 0.0035162021
0.012499999 0.00058775535 0.0035136621
-0.012499999 0.0015188875 0.0035065219
0.012499999 0.0023855937 0.0035498533
-0.012499999 0.003805466 0.0035966183
-0.012499999 0.011411534 0.003569724
-0.012499999 0.012107093 0.0035551749
0.012499999 0.014501447 0.0035240492
-0.012499999 0.017510394 0.0035204943
-0.012499999 0.018510289 0.0035302611
0.012499999 0.020888198 0.0035698498
0.012499999 0.021167779 0.0035797178
-0.0080771958 0.024999999 0.0035231542
-0.0049583074 0.024999999 0.0035370924
-0.0007398189 0.024999999 0.0035627482
0.00087427162 0.024999999 0.0035657911
-0.0083984379 -0.024999999 0.0036767838
-0.0046675131 -0.024999999 0.0036532143
-0.0025251042 -0.024999999 0.0036689811
-0.0019676341 -0.024999999 0.0036128405
-0.0017075585 -0.024999999 0.0036709455
0.0036946773 -0.024999999 0.0036947939
0.0093246521 -0.024999999 0.0036389753
0.010415446 -0.024999999 0.0036101581
-0.012499999 -0.023674298 0.0036311229
-0.012499999 -0.015649367 0.003659019
0.012499999 -0.01211875 0.003636661
0.012499999 -0.010869648 0.0036553396
0.012499999 -0.0096573615 0.0036078887
-0.012499999 -0.0069358102 0.003632444
0.012499999 -0.004987129 0.003636661
-0.012499999 -0.00057042064 0.0036093709
-0.012499999 0.0038003782 0.0036783107
-0.012499999 0.0046255938 0.0036202988
-0.012499999 0.006231816 0.0036465304
0.012499999 0.0093278158 0.0036042286
0.012499999 0.0095782764 0.003616347
-0.012499999 0.010275579 0.0036227037
0.012499999 0.014693177 0.0036140615
0.012499999 0.015933014 0.0036948558
0.012499999 0.016202822 0.0036814753
0.012499999 0.019883581 0.0036723928
-0.012499998 0.02030522 0.0036125937
0.012499999 0.023079867 0.0036181742
0.012499999 0.023587078 0.0036455493
-0.0053731003 0.024999999 0.0036284963
-0.0027099908 0.024999999 0.0036948544
0.010664918 0.024999999 0.0036755903
0.00094598252 -0.024999999 0.0037537364
0.002271702 -0.024999999 0.0037432823
0.0051738285 -0.024999999 0.003729817
0.0085273227 -0.024999999 0.0037160357
0.0098551307 -0.024999999 0.0037796474
0.012141727 -0.024999999 0.0037840856
0.012499999 -0.022478212 0.0037388292
-0.012499999 -0.020683257 0.0037945174
-0.012499999 -0.013204922 0.0037848379
0.012499999 -0.012041623 0.0037668869
0.012499999 -0.008007329 0.003788461
0.012499999 -0.0058508064 0.0037657628
0.012499999 -0.002257044 0.0037263085
0.012499999 -0.0015814281 0.0037936224
-0.012499999 0.0022563147 0.0037752644
0.012499999 0.0064452244 0.0037423344
0.012499999 0.0086310785 0.0037118399
0.012499999 0.0087538697 0.0037709363
0.012499999 0.0088666286 0.0037098024
-0.012499999 0.010046421 0.0037337202
-0.012499999 0.010256182 0.003776863
0.012499999 0.011976918 0.0037032382
-0.012499999 0.012486835 0.0037771547
-0.012499999 0.012855941 0.0037076364
-0.012499999 0.014784473 0.0037655735
0.012499999 0.015266551 0.0037936224
-0.012499999 0.016441619 0.0037775117
-0.0125 0.020123346 0.0037894079
0.012499999 0.022344787 0.003716816
0.012499999 0.022950336 0.003792949
0.012499999 0.023115898 0.0037738588
-0.011555492 0.024999999 0.0037180008
-0.0021070624 0.024999999 0.0037380138
-0.0015703496 0.024999999 0.0037201431
0.0012982441 0.024999999 0.0037851394
0.0029080389 0.024999999 0.0037655337
0.006456384 0.024999999 0.0037280109
0.010528246 0.024999999 0.003740578
-0.012318504 0.025 0.0037451228
-0.0084048249 -0.024999999 0.0038971668
-0.0071500298 -0.024999999 0.0038129748
0.0031097536 -0.024999999 0.0038127787
0.008450089 -0.024999999 0.0038566326
0.0116735 -0.024999999 0.0038151476
-0.012499999 -0.019885307 0.0038544799
0.012499999 -0.019338947 0.0038963747
0.012499999 -0.01824132 0.003807208
-0.012499999 -0.015219095 0.003896019
-0.012499999 -0.012587702 0.0038209977
-0.012499999 -0.010700891 0.0038637149
-0.012499999 -0.010507891 0.0038734551
-0.012499999 -0.010248275 0.0038854163
0.012499999 -0.0079410225 0.0038370518
-0.012499999 -0.0069954828 0.0038850256
-0.012499999 -0.0058827847 0.0038186284
-0.012499999 -0.0015965356 0.0038783378
0.012499999 0.00026894733 0.0038328068
-0.012499999 0.0018152553 0.0038666348
0.012499999 0.0028759236 0.0038740607
-0.012499999 0.0081076669 0.0038774221
-0.012499999 0.011610696 0.003862781
0.012499999 0.012786331 0.0038202845
0.012499999 0.013008523 0.0038234165
0.012499999 0.013983964 0.0038057296
0.012499999 0.017245214 0.0038032653
-0.012499999 0.020837987 0.0038942741
-0.0026944177 0.024999999 0.0038075331
-0.0020266231 0.024999999 0.0038785278
0.0068581193 0.024999999 0.0038352557
-0.011188434 -0.024999999 0.0039246017
-0.010787278 -0.024999999 0.0039969306
-0.0099384226 -0.024999999 0.0039351829
-0.0042929002 -0.024999999 0.0039393436
-0.0041434434 -0.024999999 0.0039903531
0.0013791863 -0.024999999 0.0039589941
0.0017996193 -0.024999999 0.0039385045
0.0042101406 -0.024999999 0.0039351452
0.0073140943 -0.025 0.0039327536
0.0083918264 -0.024999999 0.0039300816
0.012499999 -0.022338204 0.0039226473
-0.012499999 -0.022214592 0.0039176098
0.012499999 -0.021590114 0.00399788
-0.012499999 -0.016805831 0.0039687371
0.012499999 -0.012620233 0.0039642183
-0.012499999 -0.012077173 0.0039725741
-0.012499999 -0.0080702379 0.0039066151
-0.012499999 -0.00796609 0.0039670453
0.012499999 -0.0068861521 0.0039794222
0.012499999 -0.005241666 0.0039756782
-0.012499999 -0.004101315 0.0039284076
-0.012499999 -0.003105172 0.0039185598
0.012499999 -0.00055649504 0.0039595868
-0.012499999 -3.0968338e-05 0.0039034034
-0.012499999 0.0010355068 0.0039195316
-0.012499999 0.0016323472 0.003931378
0.012499999 0.0032533482 0.0039206818
-0.012499999 0.0036658193 0.0039962735
0.012499999 0.0078799333 0.0039591454
0.012499999 0.0079894261 0.003995263
-0.012499999 0.0090817837 0.0039619529
0.012499999 0.009888947 0.0039721532
-0.012499999 0.010205433 0.0039044078
-0.012499999 0.011093093 0.00396806
-0.012499999 0.012710417 0.0039572567
0.012499999 0.013016249 0.0039162515
0.012499999 0.014298506 0.0039011724
-0.011857906 0.024999999 0.0039675487
-0.0089167217 0.024999999 0.0039364351
-0.0071511469 0.024999999 0.0039510867
-0.0049292771 0.024999997 0.0039443714
-0.0025774324 0.024999999 0.0039701858
0.0033444059 0.024999999 0.0039262241
0.0076148156 0.024999999 0.0039289007
-0.0077857208 -0.024999999 0.0040019359
-0.0058858483 -0.024999999 0.0040638302
-0.0045845415 -0.024999999 0.0040872488
0.012499999 -0.023658298 0.0040767579
-0.012499999 -0.023561426 0.0040942817
0.012499999 -0.02235271 0.0040890411
-0.012499999 -0.019377079 0.0040729414
-0.012499999 -0.016911827 0.0040474311
0.012499999 -0.012486916 0.0040572826
0.012499999 -0.0086068809 0.0040926132
-0.012499999 -0.0047717215 0.0040081479
0.012499999 -0.0023554028 0.0040159058
0.012499999 0.00047646044 0.0040984899
0.012499999 0.0013207272 0.0040845545
0.012499999 0.0014061942 0.0040389132
-0.012499999 0.0030748327 0.0040890463
-0.012499999 0.0033731195 0.0040608603
0.012499999 0.0046137781 0.0040908717
0.012499999 0.0068465276 0.0040588118
-0.012499999 0.007677983 0.0040309373
0.012499999 0.0092758145 0.0040487582
0.012499999 0.009955422 0.0040446026
-0.012499999 0.0118315 0.0040576989
0.012499999 0.013623822 0.004062525
-0.012499999 0.013886689 0.0040430324
0.012499999 0.016078411 0.0040003173
0.012499999 0.016349409 0.0040533496
0.012499999 0.018389847 0.004022046
0.012499999 0.020567365 0.0040402263
0.012499999 0.021048589 0.0040926132
0.012499999 0.023106439 0.0040891292
-0.012499999 0.023799213 0.0040190117
-0.0030379202 0.024999999 0.0040424862
0.0042074975 0.024999999 0.0040677879
0.006882736 0.024999999 0.0040976908
-0.010052884 -0.024999999 0.0041572265
-0.0099965744 -0.024999999 0.0041690776
0.0010963585 -0.024999999 0.0041818763
0.0018981104 -0.024999999 0.0041893441
0.0044814763 -0.024999999 0.004106211
0.0073510054 -0.024999999 0.0041744197
0.01004163 -0.024999999 0.0041393009
-0.012499999 -0.020734347 0.0041863672
0.012499999 -0.014379348 0.0041765189
-0.012499999 -0.014115952 0.0041102185
0.012499999 -0.013871841 0.0041896803
-0.012499999 -0.012232684 0.0041033723
0.012499999 -0.010238968 0.0041039279
0.012499999 -0.0049807718 0.0041909749
-0.012499999 -0.0013251258 0.0041720155
0.012499999 3.8463622e-07 0.0041358443
-0.012499999 0.00041937083 0.004158414
-0.012499999 0.0013483176 0.0041813664
-0.012499999 0.0026679067 0.0041317428
-0.012499999 0.0037363549 0.0041485392
-0.012499999 0.0075560394 0.0041050045
0.012499999 0.0098049082 0.0041167503
-0.012499999 0.011919878 0.004166489
-0.012499999 0.01268628 0.0041022305
0.012499999 0.016759653 0.0041622575
0.012499999 0.022925504 0.0041206591
0.012499999 0.023644652 0.0041901115
-0.012499999 0.023840688 0.0041640792
-0.010416035 0.024999999 0.0041379351
-0.0064154584 0.024999999 0.0041916617
-0.0037315781 0.024999999 0.0041269059
-0.001514649 0.024999999 0.004160705
-0.0012292666 0.024999999 0.0041172155
0.0049621817 0.024999999 0.0041987011
0.0054251757 0.024999999 0.0041940035
0.010718375 0.024999999 0.0041555678
0.011079485 0.024999999 0.0041800737
-0.011617336 -0.024999999 0.0042452519
-0.010464381 -0.024999999 0.0042241854
-0.0059417821 -0.024999999 0.0042600073
-0.0024347017 -0.024999999 0.0042213993
-0.00018253643 -0.024999999 0.0042371396
0.0053664129 -0.024999999 0.0042035063
-0.012499999 -0.02466308 0.0042497334
0.012499999 -0.021595847 0.0042748624
-0.012499999 -0.021425713 0.0042361789
-0.012499999 -0.020315042 0.0042584906
-0.012499999 -0.015295851 0.0042275004
-0.012499998 -0.014409544 0.0042830436
0.012499999 -0.011809045 0.004230354
0.012499999 -0.0097349137 0.0042015342
-0.012499999 -0.0024108021 0.0042078337
-0.012499999 0.0045148865 0.0042414516
0.012499999 0.010826778 0.00422219
-0.012499999 0.011438633 0.0042456901
0.012499999 0.016898738 0.0042215455
-0.012499999 0.017585384 0.0042437697
0.012499999 0.020783484 0.0042125126
-0.012499999 0.020963529 0.0042751534
-0.0089325467 0.024999999 0.0042637256
-0.0026526852 0.024999999 0.0042821532
-0.002205715 0.024999999 0.0042482121
0.0029296875 0.024999999 0.0042237025
0.0070882961 0.024999999 0.0042054905
0.0099753682 0.024999999 0.004280108
0.012182508 0.024999999 0.0042554722
-0.011266408 -0.024999999 0.0043080356
-0.010277575 -0.024999999 0.0043801004
-0.0063372799 -0.024999999 0.0043452075
-0.0057227709 -0.024999999 0.0043025594
-0.0056824293 -0.024999999 0.00435053
-0.0039949473 -0.024999999 0.0043871514
-0.00099989492 -0.024999999 0.0043177204
0.0086851511 -0.024999999 0.0043460173
0.010769985 -0.024999999 0.0043169772
0.012499999 -0.023105592 0.0043590274
0.012499999 -0.019271791 0.004343776
-0.012499999 -0.017453264 0.004314078
0.012499999 -0.016364792 0.004327829
-0.012499999 -0.012641501 0.004303921
-0.012499999 -0.012068564 0.0043903338
-0.012499999 -0.0081435144 0.0043406552
0.012499999 -0.0077835941 0.0043575717
-0.012499999 -0.0069347331 0.0043775579
-0.012499999 -0.0065631913 0.0043224366
-0.012499999 -0.0026533576 0.0043253847
-0.012499999 -0.001091226 0.0043633706
-0.012499999 0.0030807606 0.0043355431
0.012499999 0.0034813783 0.0043745292
0.012499999 0.005346423 0.0043110084
0.012499999 0.0126187 0.0043212315
-0.012499999 0.014684736 0.0043723378
0.012499999 0.015128138 0.00436245
-0.012499999 0.017061643 0.0043133995
0.012499999 0.020553362 0.0043216581
-0.012499999 0.023459436 0.0043060021
-0.0048578139 0.024999999 0.0043229358
-0.0047033848 0.024999997 0.0043399832
-0.0017214743 0.024999999 0.0043330127
0.0005684346 0.024999999 0.0043718694
0.0025840187 0.024999999 0.0043560779
0.0054915571 0.024999999 0.0043164538
0.0058650877 0.024999999 0.0043296558
0.0062092654 0.024999999 0.0043189069
-0.012449976 -0.024999999 0.0044701085
-0.011316113 -0.024999999 0.0044618375
-0.0095166657 -0.024999999 0.0044677546
-0.0076910048 -0.024999999 0.0044762101
-0.0056414716 -0.024999999 0.0044818032
-0.0013023894 -0.024999999 0.0044595646
0.0027803811 -0.024999999 0.0044589089
0.0046826177 -0.024999999 0.0044995435
0.0079887453 -0.024999999 0.0044058845
0.0081479922 -0.024999999 0.0044367835
-0.012499999 -0.023732834 0.0044681984
-0.012499999 -0.013912223 0.0044763074
0.012499999 -0.011845158 0.004414482
-0.012499999 -0.009586988 0.0044755563
-0.012499999 -0.009261312 0.0044968207
-0.012499999 -0.0063209832 0.0044807671
0.012499999 -0.0051786536 0.0044437665
0.012499999 -0.0042974036 0.0044085728
-0.012499999 -0.004163425 0.0044002184
0.012499999 -0.0010714785 0.0044582738
0.012499999 -1.3326993e-05 0.0044262903
-0.012499999 0.0055538639 0.0044202656
0.012499999 0.0055691367 0.0044916263
0.012499999 0.010564499 0.0044477638
0.012499999 0.011688121 0.004416802
0.012499999 0.014594838 0.0044882745
-0.012499998 0.018736223 0.0044131582
0.012499999 0.023003338 0.0044962326
0.012499999 0.023293126 0.0044706622
-0.012499999 0.023724815 0.0044595301
-0.012095769 0.024999999 0.0044753011
-0.0098300921 0.024999999 0.0044999998
-0.0068241637 0.024999999 0.0044356808
-0.0064879898 0.024999999 0.0044977609
-0.0048328955 0.024999999 0.0044304528
0.0081634708 0.024999999 0.0044802055
-0.0082091112 -0.024999999 0.0045812037
-0.0079066511 -0.024999999 0.0045451294
-0.0034619435 -0.024999999 0.0045748819
-0.0030196654 -0.024999999 0.0045611728
0.00027696323 -0.024999999 0.0045031556
0.011325528 -0.024999999 0.0045846226
0.011740212 -0.024999999 0.0045389552
0.012499999 -0.024836462 0.0045945067
-0.012499999 -0.024189848 0.0045611942
0.012499999 -0.017622802 0.0045985198
0.012499999 -0.014505454 0.0045588473
-0.012499999 -0.014139632 0.0045932657
0.012499999 -0.01352023 0.004589186
0.012499999 -0.012422493 0.0045175627
0.012499999 -0.01215007 0.0045127571
-0.012499999 -0.0040958831 0.0045799054
-0.012499999 -0.0021491703 0.0045204605
-0.012499999 0.0012361119 0.0045335102
-0.012499999 0.0018247608 0.0045175934
-0.012499999 0.0026222458 0.00450494
0.012499999 0.0042882515 0.0045106672
0.012499999 0.0054526087 0.0045989342
-0.012499999 0.0057046958 0.0045009516
-0.012499999 0.010451399 0.0045646466
-0.012499999 0.010794582 0.0045704083
0.012499999 0.011164447 0.0045209052
-0.012499999 0.017398447 0.0045166546
0.012499999 0.018642556 0.0045746509
0.012499999 0.019235913 0.0045029288
-0.012499999 0.021355189 0.0045400867
-0.012499999 0.024995804 0.0045659011
-0.011893367 0.024999999 0.0045295889
0.007429054 0.024999999 0.0045350976
0.0079043154 0.024999999 0.0045701042
0.010241957 0.024999999 0.0045628594
0.012397172 0.024999999 0.0045575933
-0.004756161 0.025 0.0045588068
-0.012456857 -0.024999999 0.0046053166
-0.012360372 -0.024999999 0.0046347431
-0.011276439 -0.024999999 0.0046388921
-0.0072878636 -0.024999999 0.0046730149
-0.0061569382 -0.024999999 0.0046880459
0.0023503243 -0.024999999 0.0046271174
0.0050077857 -0.024999997 0.0046130987
0.0081655588 -0.024999999 0.00463827
0.012499999 -0.02370923 0.0046941503
-0.012499999 -0.021258596 0.0046685389
0.012499999 -0.021178085 0.0046538804
-0.012499999 -0.020521969 0.0046471637
0.012499999 -0.02038148 0.0046452591
0.012499999 -0.019503828 0.0046479972
-0.012499999 -0.013220195 0.0046104873
-0.012499999 -0.012538104 0.0046287091
0.012499999 -0.0080459369 0.0046632132
-0.012499999 0.0014212765 0.0046813814
0.012499999 0.011018384 0.0046206797
-0.012499999 0.015752923 0.0046419944
0.012499999 0.016041391 0.0046553789
0.012499999 0.016117888 0.0046790671
0.012499999 0.022047199 0.0046132281
0.012499999 0.022450626 0.0046928441
0.012499999 0.022871485 0.0046619764
-0.01244414 0.024999999 0.0046142116
-0.0071995053 0.024999999 0.0046281088
0.0052873828 0.024999999 0.0046057575
0.0085733943 0.024999999 0.0046528666
0.011433551 0.024999999 0.0046014995
0.0012081326 -0.024999999 0.0047275145
0.012499999 -0.024542429 0.004772576
-0.012499999 -0.024447126 0.0047532581
-0.012499999 -0.021568915 0.0047344966
-0.012499999 -0.019570177 0.0047521256
-0.012499999 -0.014247945 0.0047373152
0.012499999 -0.013367034 0.0047434801
0.012499999 -0.012890412 0.0047948966
-0.012499999 -0.012009572 0.0047174408
0.012499999 -0.010926426 0.0047604414
0.012499999 -0.0091251191 0.0047987634
0.012499999 -0.0061572045 0.0047201393
0.012499999 -0.0041547506 0.0047775805
-0.012499999 -0.000773862 0.0047047087
-0.012499999 0.00020747073 0.0047949119
0.012499999 0.0025801049 0.0047477735
-0.012499999 0.007162665 0.0047100112
0.012499999 0.0083769243 0.0047111167
-0.012499999 0.011268394 0.0047996934
0.012499999 0.011367647 0.0047123479
0.012499999 0.013461266 0.0047849175
-0.012499999 0.015392665 0.0047419281
0.012499999 0.015429792 0.0047904179
0.012499999 0.020453934 0.0047653411
-0.012499999 0.0233506 0.004717988
-0.0080120601 0.024999999 0.0047073946
-0.0064927507 0.024999999 0.00479462
-0.0059781992 0.024999999 0.0047687558
0.0044472292 0.024999999 0.0047666919
0.0054984465 0.024999999 0.0047049555
0.0060634222 0.024999999 0.0047328286
-0.0076881703 -0.024999999 0.0048135505
0.0017515989 -0.024999999 0.0048755114
0.0043645827 -0.024999997 0.0048620347
0.0054457299 -0.024999999 0.0048567122
0.0063919933 -0.024999999 0.0048613697
0.011004619 -0.024999999 0.004874283
0.012499999 -0.021619584 0.0048820768
-0.012499999 -0.019777834 0.0048918235
0.012499999 -0.014769164 0.0048596337
-0.012499999 -0.013972832 0.0048737382
-0.012499999 -0.012117652 0.0048975637
0.012499999 -0.0084111188 0.0048335008
0.012499999 -0.0082346089 0.0048776269
-0.012499999 -0.0048484937 0.0048863748
-0.012499999 -0.0031013833 0.004841839
0.012499999 -0.0013791688 0.0048774239
-0.012499999 -0.0005702395 0.0048091165
-0.012499999 -0.0004904205 0.0048018456
-0.012499999 0.00012789387 0.0048137712
0.012499999 0.0017431939 0.0048655001
0.012499999 0.0033220076 0.0048927655
-0.012499999 0.0043216664 0.004873679
-0.012499999 0.0048128366 0.0048838016
-0.012499999 0.01385008 0.0048106345
0.012499999 0.013991019 0.0048561934
0.012499999 0.014724152 0.0048182793
0.012499999 0.014835002 0.0048438404
0.012499999 0.019216226 0.0048842905
0.012499999 0.019755756 0.0048304582
0.012499999 0.02151072 0.0048247762
0.012499999 0.02188698 0.0048182793
0.012499999 0.02254511 0.0048399894
-0.0088434275 0.024999999 0.0048735151
-0.002693445 0.024999999 0.0048905853
-0.0024951184 0.024999999 0.0048765028
-0.0010712985 0.024999999 0.00487867
-0.00010034768 0.024999999 0.0048477044
0.0017912174 0.024999999 0.0048969667
0.0052868463 0.024999999 0.0048178867
0.0075130998 0.024999999 0.0048918533
0.011576969 0.024999999 0.0048290691
-0.0066570588 -0.024999999 0.004923257
-0.0047821202 -0.024999999 0.0049228212
0.01015625 -0.024999999 0.0049663922
-0.012499999 -0.020284861 0.0049927766
0.012499999 -0.013447881 0.0049823634
-0.012499998 -0.011650642 0.0049389927
-0.012499999 -0.010388637 0.0049911286
0.012499999 -0.0048074396 0.0049647428
0.012499999 -0.0023776717 0.0049889637
-0.012499999 -0.001787628 0.0049153799
0.012499999 0.0021888532 0.0049406691
-0.012499999 0.0075595593 0.004913474
0.012499999 0.0077992221 0.0049977582
0.012499999 0.010050694 0.004964943
-0.012499999 0.02252912 0.004970883
0.012499999 0.024646142 0.0049993563
-0.011840516 0.024999999 0.0049794586
-0.011009407 0.024999999 0.0049249362
-0.0076171868 0.024999999 0.004959804
-0.001319319 0.024999999 0.0049070995
0.00041649304 0.024999999 0.0049839616
0.0017484454 0.024999999 0.0049096602
0.0066112056 0.024999999 0.0049557891
0.011649346 0.024999999 0.00499252
-0.012010356 -0.024999999 0.0050000777
-0.0078608003 -0.024999999 0.0050813779
-0.0070571117 -0.024999999 0.0050488831
-0.0048333653 -0.024999999 0.0050242366
-0.0018551359 -0.024999999 0.0050867526
0.0020859777 -0.024999999 0.0050815018
0.0064421622 -0.024999997 0.0050218427
-0.012499999 -0.021801483 0.0050326353
0.012499999 -0.020265112 0.0050135311
-0.0125 -0.018147776 0.0050745183
0.012499999 -0.017127551 0.0050674649
0.012499999 -0.017017933 0.0050173206
0.012499999 -0.0029984217 0.0050292797
-0.012499999 -0.0016417047 0.0050831195
-0.012499999 -0.0013529081 0.0050402125
-0.012499999 -0.0012612734 0.0050341161
0.012499999 2.821302e-05 0.0050366484
0.012499999 0.00079262373 0.0050934423
-0.012499999 0.0040367227 0.0050077876
-0.012499999 0.0058541275 0.0050588711
0.012499999 0.011489232 0.0050668688
-0.012499999 0.014194764 0.0050307321
0.012499999 0.014199607 0.0050051482
-0.012499999 0.014290478 0.0050224094
0.012499999 0.016077578 0.0050258925
0.012499999 0.016584938 0.0050408291
-0.012499999 0.017919712 0.0050839842
0.012499999 0.020926405 0.0050165225
0.012499999 0.021091284 0.0050493833
0.012499999 0.023785949 0.005076196
-0.0059811249 0.024999999 0.0050839516
0.0022832332 0.024999999 0.005049773
-0.011051966 -0.024999999 0.0051481966
-0.0063554966 -0.024999999 0.0051799519
-0.0040630293 -0.024999999 0.0051117586
-0.0026364038 -0.024999999 0.0051326128
8.3439052e-05 -0.024999999 0.0051313257
0.0021770359 -0.024999999 0.0051149367
-0.012499999 -0.023272764 0.0051104338
-0.012499999 -0.021222694 0.0051728114
-0.012499999 -0.018256446 0.0051336354
-0.012499999 -0.016812021 0.0051068924
0.012499999 -0.015888859 0.0051708147
0.012499999 -0.014537795 0.0051515223
0.012499999 -0.014220063 0.0051943939
0.012499999 -0.014105939 0.0051355502
-0.012499999 -0.012326796 0.0051309462
-0.012499999 -0.011374632 0.0051541533
0.012499999 -0.010884998 0.0051908605
0.012499999 -0.0091699259 0.0051327879
0.012499999 -0.0079216864 0.0051047262
-0.012499999 -0.0074239676 0.0051640011
-0.012499999 -0.003691053 0.005190067
0.012499999 -0.0033305432 0.0051122429
0.012499999 -7.722911e-05 0.005150931
0.012499999 0.0014483813 0.005163732
-0.012499999 0.0016514082 0.0051396405
-0.012499999 0.0022518244 0.0051889792
-0.012499999 0.0031773243 0.0051194895
0.012499999 0.0064490316 0.0051231124
0.012499999 0.0098257698 0.0051154057
-0.012499999 0.010715589 0.0051869033
0.012499999 0.014751981 0.0051363399
-0.0093446299 0.024999999 0.0051520714
-0.0053804806 0.024999999 0.0051687658
0.0046085282 0.024999999 0.0051980382
0.011248345 0.024999999 0.0051536169
-0.01051789 -0.024999999 0.0052716993
-0.0099889413 -0.024999999 0.005258129
-0.0064332276 -0.024999999 0.0052753054
-0.0019445447 -0.024999999 0.0052243108
0.0001034243 -0.024999999 0.0052187983
0.012393228 -0.024999999 0.0052198237
0.012499999 -0.023481581 0.0052755191
0.012499999 -0.021128297 0.0052155722
0.012499999 -0.017527247 0.0052806223
0.012499999 -0.016693076 0.0052075367
0.012499999 -0.01400543 0.0052552726
-0.012499999 -0.0094191879 0.0052145612
0.012499999 -0.0071349307 0.0052977502
0.012499999 -0.0045971563 0.0052870484
0.012499999 -0.0011943438 0.005224973
-0.012499999 0.0035990933 0.0052894433
0.012499999 0.0039382139 0.005250195
0.012499999 0.0066300277 0.0052777007
-0.012499999 0.0077508786 0.0052701836
0.012499999 0.0088143935 0.005240621
0.012499999 0.013791828 0.0052817911
-0.012499999 0.016591055 0.0052707368
-0.012499999 0.017317168 0.0052024066
0.012499999 0.017409265 0.0052782847
-0.012499999 0.020603037 0.0052513196
-0.012499999 0.023270091 0.0052100485
0.0030135186 0.024999999 0.0052846209
-0.011634335 -0.024999999 0.0053873323
-0.0052390639 -0.024999999 0.0053482973
-0.0047013648 -0.024999999 0.0053287442
0.00016589649 -0.024999999 0.0053994348
0.008288309 -0.024999999 0.0053675063
0.012499999 -0.024886955 0.0053422186
0.012499999 -0.023410715 0.0053448435
0.012499999 -0.022118231 0.0053949645
-0.012499999 -0.021032447 0.0053162822
0.012499999 -0.017603984 0.0053327037
0.012499999 -0.015510539 0.0053449124
-0.012499999 -0.013973327 0.0053819353
0.012499999 -0.01170745 0.0053012501
-0.012499999 -0.011092287 0.0053361421
0.012499999 -0.0087761646 0.0053099962
-0.012499999 -0.0064946623 0.0053055258
-0.012499999 -0.0031503728 0.0053361729
0.012499999 0.0025258032 0.0053181536
-0.012499999 0.0050464179 0.0053238729
-0.012499999 0.0061714314 0.0053919796
-0.012499999 0.0073322705 0.0053217239
-0.012499999 0.010022883 0.0053512133
-0.012499999 0.013416903 0.0053020339
0.012499999 0.015259249 0.0053791413
-0.012499999 0.01720723 0.0053838012
0.012499999 0.017461931 0.0053111613
0.012499999 0.020479441 0.0053982418
-0.012499999 0.021433482 0.0053495928
-0.01235369 0.024999999 0.0053078989
-0.0056057177 0.024999999 0.0053635584
-0.0035007764 0.024999999 0.0053162263
-0.0015468169 0.024999999 0.0053882152
-0.00030743051 0.024999999 0.0053766789
0.0073988829 0.024999999 0.0053354087
0.012368811 0.024999999 0.0053810729
