# .PCD v0.7 - Point Cloud Data file format
VERSION 0.7
FIELDS x y z
SIZE 4 4 4
TYPE F F F
COUNT 1 1 1
WIDTH 1256
HEIGHT 1
VIEWPOINT 0 0 0 1 0 0 0
POINTS 1256
DATA ascii
0.024870416 -0.015438834 -0.04484418
0.025341552 -0.014609592 -0.044893477
-0.029928574 -0.0042238855 -0.044807516
-0.025778014 0.015637767 -0.044878252
0.016351586 0.024116388 -0.04482349
-0.013732877 0.02651554 -0.04485295
0.01067416 -0.027627099 -0.044722158
0.016405035 -0.024535133 -0.044746064
0.016871776 -0.024221683 -0.044785503
0.021335658 -0.020136565 -0.044722803
0.022687413 -0.018597065 -0.044721566
0.028345168 -0.0059347018 -0.044751793
-0.027461324 0.012533233 -0.04478775
0.0092079099 0.02776067 -0.044776868
-0.0098277824 0.028157327 -0.044771191
0.015140573 -0.025388474 -0.044613808
-0.025542319 -0.016117401 -0.044617739
0.025114302 -0.015063755 -0.044667408
0.025777418 -0.013909217 -0.044689775
0.02719469 -0.010154268 -0.044630826
-0.030096458 -0.0032397131 -0.044658855
0.028930148 -0.0011616707 -0.044681512
-0.030170366 0.0019389932 -0.044672344
-0.030145014 0.0023129373 -0.044698369
-0.030099876 0.0032395255 -0.044634029
-0.029647663 0.0059169792 -0.044680841
0.028072465 0.0072606388 -0.044622235
0.027792286 0.0081940694 -0.044627223
-0.028492797 0.010184888 -0.04464864
-0.027119987 0.013370451 -0.044655066
-0.027065203 0.013457697 -0.044697993
-0.026190612 0.01497896 -0.044674538
0.011753995 -0.027206743 -0.044538777
-0.014472546 -0.026300289 -0.044544548
-0.029810015 0.0051093148 -0.044537544
0.028375575 0.0059616179 -0.044504467
0.022994723 0.017779464 -0.044515662
0.018044155 0.022881178 -0.044573721
0.0040839557 0.029088395 -0.044586599
0.005597183 -0.029190941 -0.044487625
-0.01823012 -0.023989616 -0.044424225
-0.019353073 -0.023050148 -0.044467919
0.021598993 -0.019914176 -0.044432122
-0.025544256 -0.01617256 -0.044404238
0.024816122 -0.015677255 -0.044305149
0.027584843 -0.0090238424 -0.044346787
0.028803546 0.0036543524 -0.044355761
0.028436251 0.0057088039 -0.044391226
0.021806141 0.019327816 -0.044309974
0.015267765 0.024903163 -0.044382211
0.022363894 -0.019138552 -0.044244807
-0.026703795 -0.014217983 -0.044207949
0.026417136 -0.01236948 -0.044243418
0.027240213 -0.010174702 -0.04427439
0.027601443 -0.0090361657 -0.044207931
0.027629539 -0.0089062611 -0.044281811
0.027886003 -0.0080567505 -0.044267178
0.024854071 0.015089125 -0.044256274
-0.021981293 0.020654047 -0.044276644
-0.021717053 0.020935684 -0.044268847
0.012619833 -0.026827764 -0.044174511
-0.019846249 -0.022691999 -0.0441567
0.02578713 -0.014037275 -0.044148885
0.028549774 -0.0052445219 -0.044168495
-0.030068617 0.0039765527 -0.044114497
-0.029032648 0.0086321551 -0.044124365
-0.017573223 0.024340754 -0.04419218
0.0084115472 0.028150724 -0.044104204
0.007159471 0.028485723 -0.044189662
-0.00094404561 -0.029858636 -0.044063013
-0.0051333327 -0.029516893 -0.044052199
-0.0063398695 -0.029299781 -0.044005454
-0.018566148 -0.023784809 -0.044052273
-0.029674701 -0.00624693 -0.044068437
0.027900208 0.0081380801 -0.044003349
0.027566776 0.0092326058 -0.044042703
-0.028672788 0.0098495167 -0.044092242
0.024335444 0.016053582 -0.044019926
-0.024993803 0.017042879 -0.044065621
-0.017283075 0.024546582 -0.044098634
0.013169011 0.026168775 -0.044001058
-0.012389985 0.02730608 -0.044078179
-0.0072007123 0.028980788 -0.044094246
-0.0011066326 0.029492281 -0.044062816
0.0081467684 -0.028663293 -0.043924697
-0.0094053019 -0.028540656 -0.043909267
0.01466448 -0.025815209 -0.043921188
-0.015837505 -0.025635108 -0.04398619
-0.017196503 -0.024754893 -0.043903217
-0.024446599 -0.017805429 -0.043945655
0.028668361 -0.0047689122 -0.043924179
0.028861474 0.0036678496 -0.043931462
-0.029132545 0.0083817299 -0.043950129
-0.028759375 0.0096380608 -0.043929491
0.027396783 0.0098434929 -0.043954458
0.025921382 0.013324499 -0.043956194
-0.025003413 0.017054059 -0.043960653
-0.0013762524 -0.029881394 -0.043896951
-0.0067673828 -0.029216638 -0.043876357
-0.0098146424 -0.028405253 -0.043816108
0.028858561 -0.0037655411 -0.043830778
0.029032975 0.0013420685 -0.043873243
-0.029094111 0.0085400026 -0.043887556
0.026291547 0.012525091 -0.043846745
0.024713017 0.015455157 -0.04382151
0.02323867 0.017610392 -0.043839015
0.014701876 0.025360977 -0.043871153
-0.0037126774 0.029589258 -0.043800447
-0.0024079394 -0.029878257 -0.043741897
0.0040736515 -0.029577337 -0.043736331
0.010288013 -0.027914844 -0.043712806
-0.023175575 -0.019493468 -0.043749399
0.025674371 -0.014339292 -0.04375051
-0.027330894 -0.013189744 -0.043764163
0.027754137 -0.0087500587 -0.043749139
-0.029694851 0.0063556358 -0.043785874
-0.028907139 0.0092489459 -0.043710887
-0.027813604 0.012079537 -0.043738607
0.025404247 0.014285093 -0.043724418
0.025297038 0.014469879 -0.04372764
0.019703748 0.021641023 -0.043739654
0.015840191 0.024626283 -0.043787658
0.0086547118 0.028113708 -0.043758571
-0.0096263383 0.028381467 -0.043712996
0.0004851087 0.02953361 -0.043767594
0.0047156126 -0.029521018 -0.043600675
-0.018166108 -0.024165407 -0.043609157
0.024560208 -0.016307345 -0.043607648
-0.026033683 -0.015523988 -0.043677665
0.028361458 -0.0067575201 -0.043616455
0.028516427 0.005837942 -0.04366694
-0.0085893366 0.028706541 -0.04369564
0.0047605755 -0.029526785 -0.043510813
-0.0083994102 -0.028870802 -0.043585509
-0.019573735 -0.023036176 -0.043510973
-0.022553368 -0.02018287 -0.043599665
0.024986744 -0.015579023 -0.043568593
0.028377384 0.0067584189 -0.043503281
0.027062275 0.010833193 -0.043578371
0.021894746 0.019387512 -0.043556899
-0.018101307 0.024101699 -0.043516751
0.011778213 0.026934806 -0.043569837
-0.012929734 0.027117385 -0.043528542
0.010148378 0.027600661 -0.043553118
-0.0058031399 0.029389612 -0.04353049
0.014619458 -0.025921268 -0.043455105
-0.017861355 -0.024396911 -0.043419734
0.029093703 -0.0013514572 -0.043436237
-0.030301875 0.0024639971 -0.043491557
-0.027422577 0.013096183 -0.043420274
-0.026949447 0.013994006 -0.043472718
0.017255876 0.023749851 -0.043439656
-0.018484477 0.023835652 -0.043408033
0.00712464 0.028605863 -0.043411903
0.0062711099 0.028808568 -0.043409038
-0.0032405008 0.029618021 -0.043461807
-0.0020705906 -0.029955015 -0.043359704
0.013879076 -0.026318183 -0.043373488
-0.016145585 -0.02554331 -0.043310516
-0.017079271 -0.024928695 -0.043313667
0.022329291 -0.019345015 -0.043382194
0.029060632 0.0021644821 -0.043334376
-0.03025729 0.0034776055 -0.043386258
-0.0097287092 0.028399605 -0.043324299
0.0020474212 -0.029882943 -0.043237839
0.0049546128 -0.029515447 -0.043264776
-0.013173142 -0.027148707 -0.043267503
-0.018545631 -0.023953855 -0.043203544
0.020896774 -0.02087995 -0.043297358
0.022348356 -0.019354954 -0.043227721
0.025602665 -0.014609281 -0.043206234
0.026456451 -0.012752361 -0.043222576
-0.029922333 -0.0055229589 -0.043206234
0.029106401 0.0015216275 -0.043275006
-0.027237106 0.013562475 -0.043229312
-0.025620721 0.016362853 -0.043226719
-0.022308677 0.02051745 -0.043222968
0.018115161 0.023066284 -0.043234672
-0.0053274268 0.02950344 -0.043238286
0.010624556 -0.027871704 -0.043168653
-0.013720092 -0.026888181 -0.043175139
-0.017575994 -0.024627611 -0.043157488
-0.027745962 -0.012440966 -0.043147199
-0.028073389 -0.011664813 -0.043196619
-0.02844266 -0.010839217 -0.043108538
-0.03047259 -0.00031808077 -0.043158408
0.029044289 0.0027811429 -0.043194782
0.028965443 0.0036858874 -0.043177634
0.028641321 0.0055727093 -0.043117307
-0.023841074 0.018809818 -0.043113239
-0.023451336 0.019312521 -0.04319182
0.018683784 0.022598401 -0.043184053
-0.01067798 0.028084047 -0.043114174
-0.0059226351 0.029420137 -0.043102965
0.00015741774 0.02961494 -0.04318656
-0.0036128289 -0.029831294 -0.043061532
-0.026210455 -0.015397659 -0.043021448
-0.030300291 -0.0034777604 -0.043072913
0.029150119 0.0012399583 -0.043080207
-0.028955648 0.0094157066 -0.043022759
0.014693409 0.025499092 -0.043080036
-0.014614745 0.026344053 -0.043042012
0.0071235029 0.028651804 -0.043094426
-0.0094594508 -0.028657034 -0.042976078
0.012039675 -0.027312633 -0.042912662
0.019265495 -0.02258219 -0.042922787
0.023575097 -0.01779438 -0.04298408
-0.028909851 -0.0096003003 -0.042956583
-0.02577683 0.016179999 -0.042907324
0.023438688 0.017553704 -0.042934697
0.020123944 0.021392463 -0.042929333
0.017372077 0.023743471 -0.042940974
-0.017269311 0.024739407 -0.042952206
0.010444021 0.027580779 -0.04296422
-0.0092569953 0.02862601 -0.042940393
-0.0027176957 0.029665956 -0.042971648
-0.00085545145 0.029648222 -0.042948797
-0.006064551 -0.029526126 -0.042861603
0.0061458061 -0.029290734 -0.042855758
0.013072498 -0.026798962 -0.042879857
0.019884603 -0.022011541 -0.04285894
-0.025930351 -0.015938997 -0.042816449
-0.027264457 -0.013613584 -0.042869985
0.028767515 -0.005089595 -0.042828809
0.029181533 0.0013553957 -0.042808216
-0.030134356 0.0046269409 -0.042817924
0.026381861 0.012664396 -0.042860143
0.024254506 0.01646816 -0.042890806
0.020991249 0.020487009 -0.04286151
-0.02163803 0.021294007 -0.042893894
-0.0035506624 -0.02987819 -0.042774301
0.0030811003 -0.029826485 -0.042771362
-0.010282073 -0.028390832 -0.042748373
0.028970199 0.0039754827 -0.042784922
0.028797954 0.0049848584 -0.042744573
0.028684512 0.005635255 -0.042735852
0.023826916 0.01708463 -0.042711124
-0.0098702451 0.028423131 -0.042797793
0.0065752622 0.028836969 -0.042710509
-0.002092175 0.029677523 -0.042739481
0.016897557 -0.024556205 -0.042642605
0.028624717 -0.0060581891 -0.042631865
0.027157072 0.010953389 -0.042616423
-0.025440894 0.016771792 -0.042629942
-0.021416515 0.02158122 -0.042631406
-0.016904715 0.025026223 -0.042658925
-0.012420062 0.027501503 -0.042673454
0.010693524 0.027530758 -0.042690404
-0.0091485148 0.028703244 -0.042675529
-0.0014978601 -0.030066613 -0.042545341
-0.004806668 -0.029763889 -0.042538714
-0.011813324 -0.027861822 -0.042554162
0.017922543 -0.023820242 -0.042579278
0.022562891 -0.01925757 -0.042522304
-0.024054416 -0.018649004 -0.042565253
-0.030551869 0.00036990657 -0.042558871
-0.0012961312 0.029701311 -0.042569526
-0.0004998541 -0.030081537 -0.042436417
-0.015481079 -0.026121106 -0.04241005
-0.029159747 0.0090162223 -0.042432029
0.021628283 0.01988654 -0.042495053
-0.01690612 0.025055375 -0.042471282
0.011635219 0.027187608 -0.042414401
0.0067197909 0.028847357 -0.042400189
0.0027281798 -0.029922344 -0.042375557
0.018208705 -0.023628362 -0.042309616
0.020283692 -0.021710541 -0.04237115
-0.030035846 -0.0055776509 -0.042321149
-0.025978679 0.015973818 -0.042383995
0.010821989 0.027533397 -0.042358793
-0.0091563631 0.028744619 -0.042365186
0.0042058695 0.029386066 -0.042373337
0.0015844991 -0.030071877 -0.042260628
0.023762777 -0.017701851 -0.042272579
0.025463033 -0.015103791 -0.042262971
0.029270269 -0.0012925189 -0.042201482
-0.030598361 0.00029165111 -0.042253383
-0.030563084 0.00090046943 -0.042252045
0.029164396 0.002917361 -0.042281624
0.028811835 0.0052705947 -0.04229245
0.028529957 0.0069019916 -0.042226087
-0.0281654 0.011772256 -0.042269547
-0.016188078 0.025565457 -0.042235382
-0.014991462 0.026273783 -0.042248514
0.0060081193 0.029035103 -0.042267576
-0.0031612769 0.029790007 -0.042208072
-0.0055377907 -0.029730719 -0.042159766
-0.017840642 -0.024613993 -0.042179298
-0.022303518 -0.020741023 -0.042130765
-0.028630622 -0.010744707 -0.042122282
-0.029212208 -0.0089823017 -0.042136274
-0.026568087 0.015025068 -0.042120796
0.02134062 0.020269673 -0.042111531
0.01936253 0.022223458 -0.042119138
0.01185644 0.027111836 -0.042188868
-0.0021261768 -0.030138267 -0.042022444
-0.00093718118 -0.030129712 -0.042084858
0.0071940143 -0.02915721 -0.042039867
0.014179397 -0.026366226 -0.042076617
-0.0170113 -0.025182333 -0.042039867
0.017139487 -0.024497215 -0.042032126
-0.022710934 -0.020329501 -0.042029016
-0.027100287 -0.01411012 -0.04209581
-0.030279409 -0.0044247629 -0.042031705
0.024150563 0.016794797 -0.042092983
0.0175285 0.023769351 -0.042081069
0.0078988336 0.028612496 -0.042090312
0.0087863319 -0.028711941 -0.041994847
-0.014970333 -0.02645275 -0.041920051
-0.019529225 -0.023349861 -0.041966245
-0.021137966 -0.021994529 -0.041996635
-0.02494321 -0.017600739 -0.041930795
0.025623973 -0.0148966 -0.041995801
0.026743235 -0.012331494 -0.041908313
-0.028804954 0.010397907 -0.041956514
-0.028586423 0.010918979 -0.041914728
-0.027621992 0.013125319 -0.041999873
-0.027496833 0.013441757 -0.041923895
-0.011155358 0.028077597 -0.04194032
-0.0094818641 0.028686635 -0.041940786
0.0038055456 0.029493786 -0.041940998
-0.0012248966 -0.030161548 -0.041852549
0.010875139 -0.027973302 -0.041846562
0.011543836 -0.02772454 -0.041850444
-0.028010383 -0.012260348 -0.041897502
0.028083624 -0.008585114 -0.04183216
-0.029956095 -0.0063915337 -0.041862957
0.029312966 0.0014669602 -0.041824516
0.027890809 0.0092050843 -0.041881487
-0.025410626 0.016993601 -0.041840542
0.022863775 0.018590985 -0.041804016
0.021340407 0.02032421 -0.041845284
-0.015356218 0.026153561 -0.041828383
0.0098895011 0.027945343 -0.041871779
-0.007225506 0.029277418 -0.041896421
0.0053893062 0.029239183 -0.041868433
0.0044506574 -0.029805113 -0.041766021
0.0077790292 -0.029056035 -0.04177374
-0.020257674 -0.02277779 -0.041747268
-0.021677131 -0.021481384 -0.041748039
-0.024285775 -0.018531086 -0.041724879
-0.024452372 0.018292842 -0.0417879
0.010712943 0.027669558 -0.041711178
-0.010952107 0.028183697 -0.041714936
0.014916568 -0.026028354 -0.041610826
0.017141009 -0.024560083 -0.041642733
-0.027384095 -0.013732568 -0.041679777
-0.029915687 0.0067721484 -0.041671049
0.02654737 0.012695855 -0.041685447
0.02190971 0.019751135 -0.041696485
-0.0084304465 0.029021494 -0.041681007
-0.0061169057 0.029567868 -0.041695122
-0.0014170421 -0.03020625 -0.041526347
-0.0025572639 -0.030166458 -0.041526508
-0.013677061 -0.02716418 -0.041516248
0.015518557 -0.025638554 -0.041573413
0.015861968 -0.025414471 -0.041562557
-0.026638672 -0.015050728 -0.041581098
0.029305555 0.0023464821 -0.041512039
-0.026131108 0.015942346 -0.041535512
0.024586182 0.016315192 -0.041534197
0.020542184 0.021239553 -0.041505661
-0.019568495 0.023254175 -0.04153125
0.0027351556 0.02967439 -0.041547246
-0.0031901621 0.029881161 -0.0415635
0.0076074321 -0.029144675 -0.041433126
0.011849601 -0.027632754 -0.041447591
-0.024822732 -0.017874084 -0.041444842
-0.028514987 -0.011247301 -0.041444413
0.029264351 -0.0031617808 -0.041467231
0.029372703 -0.0012366355 -0.041494142
-0.029846089 0.0071724495 -0.041492816
-0.028406743 0.011486333 -0.041478824
0.02674412 0.012337158 -0.041409798
0.025905952 0.01403945 -0.041497879
-0.02667667 0.015032204 -0.04140855
-0.026056409 0.016087016 -0.041479737
0.023908803 0.017261129 -0.041488931
-0.024654927 0.018099336 -0.041445497
0.0068557123 -0.02933366 -0.041356277
-0.010056613 -0.028670663 -0.041392211
-0.012586182 -0.027734935 -0.041366927
0.019906912 -0.022262555 -0.041382194
0.027261976 -0.011156403 -0.041353848
0.029050812 -0.0046668337 -0.041360136
-0.030720588 -0.00039887993 -0.041317452
-0.030740149 6.4301683e-05 -0.041316912
0.02925922 0.0034153527 -0.04139851
-0.026229694 0.015818439 -0.041364584
0.023217503 0.018214442 -0.041383415
-0.019320622 0.023498867 -0.04132133
0.017503045 -0.024390308 -0.041226067
-0.026642662 -0.015145084 -0.041211613
0.026970873 -0.011860174 -0.041272037
-0.029989932 -0.0067032627 -0.041224774
0.029350227 -0.0022992794 -0.041213062
0.029373787 0.0017333544 -0.041280109
-0.029545652 0.0083004814 -0.041232228
-0.022381742 0.020832565 -0.041257143
0.016220514 0.024799174 -0.041262731
0.0034578361 -0.03000072 -0.041189328
-0.012732227 -0.027695268 -0.041147284
-0.018874129 -0.024051754 -0.041115414
0.024201589 -0.017363355 -0.041153759
0.02578393 -0.014847759 -0.041143805
0.026664179 -0.013057326 -0.041107044
-0.029051982 -0.0099831345 -0.041161753
0.028796736 -0.0062864069 -0.041138522
-0.030658782 -0.0018454761 -0.041153912
0.029430013 -0.0010749339 -0.041152589
0.011282172 0.027545305 -0.041154463
0.0043679974 0.029546194 -0.041102655
-0.0035603135 0.0299586 -0.04111303
0.0049517378 -0.029823387 -0.04108306
-0.0089620175 -0.029088637 -0.041091949
-0.02486673 -0.017898686 -0.041080106
-0.030585371 0.0033895841 -0.04103354
-0.029280718 0.0092710759 -0.041052964
-0.027625263 0.013439108 -0.04107102
-0.024440076 0.018485937 -0.041018434
0.0231054 0.018431492 -0.041099843
0.020996489 0.02085425 -0.041033886
-0.013650997 0.027119327 -0.041098621
-0.013570495 0.02717242 -0.041014113
-0.0094649959 0.028822999 -0.041027065
-0.0054676747 0.029779302 -0.04107089
-0.00053599814 -0.03028175 -0.040975381
-0.010091573 -0.02871714 -0.040986251
0.010002917 -0.028418606 -0.040969923
0.014555654 -0.026343795 -0.040990658
0.020457361 -0.02179932 -0.040973041
-0.024558248 -0.018353727 -0.040902853
-0.030265037 0.0053546354 -0.04095668
0.024906078 0.01592502 -0.040948745
0.020868836 0.021012912 -0.04091939
-0.016173411 0.025785383 -0.040923577
0.013234526 0.02661836 -0.040920846
0.0062456671 0.029166084 -0.040965714
-0.00019822719 -0.030303488 -0.040816758
-0.0027005451 -0.030246254 -0.040826779
0.00041192054 -0.030298684 -0.040851835
0.014574688 -0.026351295 -0.040879421
0.016877107 -0.024856893 -0.040891342
-0.026414715 -0.015643312 -0.040834293
-0.027271183 -0.01416316 -0.040822268
-0.028052261 -0.012522912 -0.040857989
-0.030747801 -0.0011210424 -0.040812802
0.025906349 0.014230296 -0.04081374
-0.026256673 0.015912835 -0.040849674
0.0216578 0.02018946 -0.040856615
0.018947933 0.02280283 -0.040852331
-0.017757302 0.024751958 -0.040871702
-0.005393845 -0.02993824 -0.040777594
0.0082182763 -0.029095307 -0.0407557
-0.016931444 -0.025450611 -0.040724415
0.020984843 -0.021280855 -0.040764853
0.021075279 -0.021183716 -0.040771421
-0.027802328 -0.013140346 -0.040748097
-0.028710613 -0.01103146 -0.040757462
0.027222339 0.011455858 -0.040766526
-0.024005709 0.019133745 -0.040738009
0.020421376 0.021524591 -0.040736031
0.020192126 0.021763947 -0.040753853
-0.01820883 0.02447707 -0.040733919
-0.0063024894 -0.029778797 -0.040667046
0.005513058 -0.0297502 -0.040658101
-0.021229036 -0.022158748 -0.040651463
0.028210228 -0.0087269684 -0.040675044
0.029559238 0.00011710241 -0.040628858
-0.028974604 0.010461837 -0.040634993
-0.025322314 0.017383846 -0.040656921
0.02356532 0.017912786 -0.040677205
0.020555399 0.021395236 -0.040673755
0.015859008 0.02513619 -0.04067035
-0.0017326924 0.029973404 -0.040625717
-0.019781029 -0.02339595 -0.04052747
-0.021533918 -0.02188237 -0.040500164
0.024215007 -0.017491359 -0.040502641
0.026240442 -0.014208267 -0.040579297
-0.030833792 0.00015736271 -0.040595256
0.029422354 0.0026608456 -0.040548466
0.027595509 0.010659133 -0.040573038
0.023594502 0.017898586 -0.040570561
-0.0095780222 0.028853901 -0.040521622
0.0043556341 0.029624553 -0.040556919
0.009938458 -0.028523898 -0.040408794
-0.019597922 -0.023558475 -0.040477831
0.024134476 -0.017601945 -0.040491894
0.024341989 -0.017342374 -0.040406421
-0.027899493 -0.013001217 -0.040499166
0.028188083 -0.0089182779 -0.040434629
0.029423684 0.0028589391 -0.040456694
0.029285688 0.0040513249 -0.04047126
-0.023526572 0.019789521 -0.040403798
0.0086067505 -0.029015545 -0.040361181
0.0086616594 -0.028995056 -0.040364619
-0.015094683 -0.026623618 -0.040398553
0.02262797 -0.019614594 -0.040378757
0.027573653 -0.010778049 -0.040379945
0.028252844 -0.0087189749 -0.040399771
0.029253256 -0.0043259715 -0.040358733
0.029278468 0.0042057969 -0.040330414
0.028698931 0.0072479662 -0.040360793
0.028323799 0.0085014254 -0.040359892
-0.028632529 0.01134352 -0.040378727
-0.023549769 0.019774588 -0.04035544
0.017375426 0.024198359 -0.040315006
-0.013414786 0.02735737 -0.040301833
0.010087445 0.028097408 -0.040367298
-0.0036042649 -0.030218553 -0.040261932
-0.013971379 -0.027202923 -0.040299695
0.01577037 -0.025697676 -0.040203203
0.023782078 -0.018124489 -0.040272556
0.028863898 0.0065958649 -0.040282134
-0.023639731 0.019695006 -0.040276464
0.018630654 0.023171555 -0.040291414
0.015566886 0.025395762 -0.040267818
-0.0052767922 0.029917454 -0.040211808
-0.0022429577 0.030033061 -0.04020967
0.00023126198 -0.030397626 -0.040129803
0.007730308 -0.029292185 -0.040178921
-0.010842459 -0.028572019 -0.040107295
-0.017961225 -0.024875401 -0.040102009
-0.023757063 -0.019599717 -0.040130865
-0.029946877 0.0074538081 -0.040199369
-0.029510524 0.0089149419 -0.040191807
-0.027585192 0.013798437 -0.040168591
0.019373273 0.022572631 -0.040158931
-0.017285042 0.025178479 -0.040148631
-0.016845729 0.025469337 -0.040136684
0.014709127 0.025985096 -0.040117547
-0.013419731 0.02738427 -0.040105779
0.003697427 -0.030136492 -0.040002305
0.0042739781 -0.030065734 -0.040026728
-0.0075853299 -0.02955595 -0.040090524
-0.022960179 -0.020452559 -0.040089842
-0.025658676 -0.017077118 -0.040024683
-0.026246924 -0.016151221 -0.040041484
-0.026371721 -0.01594111 -0.040019441
0.02933214 -0.0041466891 -0.040026136
0.029630456 -0.00033902333 -0.040028766
0.02960635 0.00064506178 -0.040073555
0.026059665 0.014175659 -0.040060353
-0.026258659 0.01611509 -0.040099151
0.019649016 0.022359898 -0.040056914
-0.017800402 0.024847567 -0.040098429
0.013756372 0.026493121 -0.040047236
-0.010369262 0.028631721 -0.040059909
0.00043670961 0.030054687 -0.040045053
-0.0054614847 -0.030049186 -0.039916154
0.012055347 -0.027758908 -0.039951116
0.013900526 -0.026833376 -0.039943602
0.015404109 -0.025972394 -0.039996982
-0.01815564 -0.024777949 -0.03991656
0.018502094 -0.02380887 -0.039924391
0.029192509 -0.0050004493 -0.03994938
0.029589593 0.0013018419 -0.039920248
0.025127318 0.015833518 -0.039906818
-0.017033663 0.025380794 -0.039917942
0.015124004 0.025738813 -0.039958864
0.014084922 0.026349725 -0.039909281
-0.0089057665 0.029152336 -0.039911915
-0.0047272611 -0.030144382 -0.039848171
0.0073187607 -0.029441416 -0.039811883
-0.013734543 -0.027394429 -0.039826494
-0.015083836 -0.026706621 -0.0398928
0.018615806 -0.023725655 -0.039856181
0.029086236 -0.0057005514 -0.039828561
0.029589269 0.0015636784 -0.039813805
0.029476628 0.0033023886 -0.039894909
-0.024936587 0.018078879 -0.039886005
0.023022082 0.018842403 -0.039824333
0.022345798 0.019666493 -0.039845411
-0.022572808 0.020919792 -0.039806165
0.021118132 0.02097507 -0.03980948
-0.0096027246 0.028941432 -0.039844401
-0.0039846795 -0.030246982 -0.039733618
-0.0068586012 -0.029770311 -0.03979142
0.014850164 -0.026382448 -0.039718248
-0.02226112 -0.021268928 -0.039712187
0.02191166 -0.020503743 -0.039713141
-0.027785141 -0.013530185 -0.039736476
-0.029558498 -0.0089467019 -0.039789975
-0.03049235 -0.005038145 -0.039724149
0.028658204 0.0076927566 -0.039728187
-0.014353765 0.026972292 -0.039724711
-0.0088474546 -0.029312227 -0.039697103
0.0088219037 -0.029040303 -0.039654389
-0.016837439 -0.025696848 -0.039600123
0.016822439 -0.025094256 -0.039663408
0.024509918 -0.01728199 -0.039669901
-0.026468512 -0.015874296 -0.039651535
0.025648221 -0.015474505 -0.039681498
0.026182864 -0.014564427 -0.039621942
0.02955595 0.0024896164 -0.039666798
0.029115049 0.0057118903 -0.039611787
0.019362986 0.022673346 -0.039655022
-0.0098103359 0.028893966 -0.039647229
-0.0093043176 0.029084366 -0.039603572
0.0072587607 0.029115941 -0.039645217
-0.0026146371 0.030125245 -0.039654054
-0.0018754499 0.030103981 -0.039692912
-0.0017386031 0.03011312 -0.039627612
0.010354354 -0.028491531 -0.039592743
-0.014043622 -0.027286775 -0.039516278
-0.018627744 -0.024524568 -0.039568264
0.029477457 0.0037196828 -0.039533492
0.027846558 0.010431817 -0.039569452
-0.028863039 0.011080482 -0.039594442
-0.02480728 0.018333431 -0.039533626
0.020015154 0.022142448 -0.039565612
0.01762281 0.024154615 -0.039539605
0.015570559 0.025506802 -0.039590642
-0.010324208 0.028722405 -0.03953867
-0.00022834017 0.030128207 -0.039519832
-0.012455307 -0.028081991 -0.039442129
0.022775512 -0.019638617 -0.039454382
0.027536593 -0.011201462 -0.039424956
-0.030943401 -0.00086067064 -0.039498333
0.027358338 0.011590826 -0.039492529
0.021373931 0.020768903 -0.039491002
-0.022562651 0.020996656 -0.039475184
0.014335573 0.026294682 -0.039457042
-0.0051655527 0.03003535 -0.039433897
-0.004363934 0.030126609 -0.039451964
-0.010982586 -0.028633462 -0.039336223
-0.011487775 -0.028451836 -0.039320834
-0.01993178 -0.023482285 -0.039337732
-0.022292424 -0.021311007 -0.039335329
-0.031002035 0.0002779933 -0.039318401
0.028670387 0.0078154579 -0.039393403
-0.027898515 0.013400524 -0.039351597
0.0046209861 0.029762696 -0.039356641
0.014620995 -0.026576273 -0.039260648
0.016744776 -0.025219221 -0.039212961
0.017410224 -0.024767851 -0.039296456
-0.019195413 -0.024108239 -0.039292619
-0.023153879 -0.020421399 -0.03921774
0.026019506 -0.014934439 -0.039296895
-0.029098324 0.010637844 -0.039297272
0.025119748 0.016034428 -0.039235994
0.014073525 0.026455898 -0.039268002
-0.011201267 -0.028585969 -0.039116099
-0.021466929 -0.022224972 -0.039140068
0.02386773 -0.0182606 -0.039152682
0.027373269 -0.011692362 -0.039107271
-0.030890342 -0.0024780915 -0.039198589
0.028763257 0.0076482431 -0.039100442
-0.024269503 0.019136731 -0.039180908
-0.023563614 0.019995771 -0.039174326
0.021595227 0.020604407 -0.039147511
-0.005674067 0.030015906 -0.039137304
-0.0024669692 0.030186877 -0.039171267
0.011677154 -0.028084822 -0.039064344
-0.023794996 -0.019772751 -0.039063014
-0.026266284 -0.016383352 -0.039072156
0.029687941 -0.0017694301 -0.039024632
-0.0308265 0.0037122583 -0.039002918
0.019668136 0.022534605 -0.039013032
0.018019535 0.023905385 -0.039081778
-0.011510346 0.028354308 -0.039092291
-0.010667262 0.02866248 -0.03908306
-0.01007189 0.028878264 -0.039089464
0.0081476914 0.028985007 -0.039090872
-0.0003115249 -0.030563485 -0.038919482
-0.0084207952 -0.029524229 -0.038909771
0.0088581415 -0.029124741 -0.038984973
-0.018474562 -0.02472375 -0.038968153
0.018886983 -0.023662483 -0.038937312
-0.024126329 -0.019371023 -0.038997993
0.026981696 -0.01296486 -0.038939279
0.029729735 0.001134319 -0.038990356
0.028159266 0.0097213145 -0.038986512
0.022753069 0.019406904 -0.038957648
0.014029332 0.026533039 -0.038917225
0.0066785091 -0.02972902 -0.038847174
-0.02323279 -0.020421075 -0.038800515
0.025782015 -0.015461995 -0.038863055
0.027419414 -0.011689374 -0.03881304
-0.028564181 0.012033862 -0.038841363
-0.020033266 0.023352031 -0.038845755
0.0090648932 0.028696615 -0.038843241
-0.0044341902 -0.030328427 -0.038762514
0.012065572 -0.027941631 -0.038726054
-0.021949805 -0.021797039 -0.038719978
-0.031001363 -0.0015458207 -0.038785364
-0.030248258 0.0071210503 -0.038788911
-0.03011065 0.0075985584 -0.038751516
0.026256563 0.014205799 -0.038734533
-0.026679721 0.015763711 -0.038720246
-0.025735091 0.017273383 -0.038722131
-0.014509941 0.027045924 -0.038710061
0.012723928 0.02722029 -0.038715161
0.0011180702 -0.030595303 -0.038687304
-0.022150414 -0.021588745 -0.038698267
-0.025764484 -0.017239483 -0.03869782
0.025275415 -0.016388256 -0.038680844
0.029837936 -5.6498189e-05 -0.038666382
0.029663403 0.0031403066 -0.038630184
-0.023487031 0.020178512 -0.038665697
0.021576496 0.020723723 -0.038659923
0.019693859 0.022582371 -0.038633496
-0.016993359 0.025603551 -0.038693678
-0.015663998 0.02646908 -0.038691752
0.0052233255 0.029745316 -0.038623586
0.00052564288 -0.030614365 -0.038548216
-0.0075854305 -0.029766172 -0.038597662
-0.01193429 -0.028402634 -0.038543765
-0.026339296 -0.016391061 -0.038582627
0.028259769 -0.0095918532 -0.038563937
0.029405629 -0.0048849629 -0.038593262
0.027853064 0.010788165 -0.03851847
-0.015188553 0.026733406 -0.038521279
0.0096266065 0.02853067 -0.038584761
-0.0030679901 0.030295867 -0.038559768
-0.0046456228 -0.030342193 -0.038483594
0.012608317 -0.027706182 -0.038483929
-0.0293606 -0.010254927 -0.038435426
0.029875174 -1.2267391e-05 -0.038419206
-0.029677419 0.0091871424 -0.038455401
-0.025655465 0.017453 -0.038405515
-0.020529963 0.02305235 -0.038427323
0.017253488 0.024594041 -0.038432017
0.016220134 0.025272921 -0.038436592
-0.01586137 -0.026540931 -0.03836786
0.016513245 -0.025517855 -0.038320646
-0.021235989 -0.022566652 -0.038338631
-0.027607746 -0.0142715 -0.038300004
0.026899572 -0.013578809 -0.038374115
-0.029246222 -0.010624626 -0.038344495
0.029392174 -0.0051260795 -0.038388819
-0.028836867 0.011570383 -0.038353838
0.025791276 0.015119344 -0.038350031
-0.025883326 0.017148238 -0.038399804
-0.003554696 0.030340362 -0.038377933
-0.0049504763 -0.030333094 -0.038291279
0.020647313 -0.022131937 -0.038237128
0.022551462 -0.020120518 -0.03820198
0.02481525 -0.017180763 -0.038292587
-0.029610498 -0.0095007382 -0.038266886
0.029821631 0.0014362162 -0.038209595
0.02885923 0.007738289 -0.038259123
0.027687103 0.011268988 -0.038246602
-0.026451841 0.016282659 -0.03826689
-0.02171164 0.022140581 -0.038263775
0.02017005 0.022244962 -0.038293306
0.018121313 0.023963345 -0.038297221
-0.016479289 0.026014287 -0.038240619
0.014559573 0.026373152 -0.038237903
-0.015241671 0.026753981 -0.038205974
0.012407133 0.027445765 -0.038291421
0.0067413226 0.02943412 -0.038285919
0.0043083201 0.029959489 -0.038219582
0.0043787155 -0.030311111 -0.038159486
-0.0092227049 -0.029435504 -0.038190268
0.018245269 -0.024344986 -0.038132116
0.022221485 -0.020477179 -0.038166586
0.023606028 -0.018827302 -0.038193252
0.027924351 -0.010739762 -0.03818782
-0.030890204 -0.0040092468 -0.038168762
0.029837992 -0.0012974372 -0.038150541
0.029207267 0.0063513126 -0.038169786
0.029134024 0.0068197316 -0.038103998
-0.029740624 0.0091132782 -0.038168132
0.021565793 0.020835252 -0.038168751
0.01970881 0.022657609 -0.038153101
-0.0010410356 0.030315552 -0.03818145
-0.0012866979 -0.030678455 -0.038080517
-0.010602061 -0.028966598 -0.038001548
0.016536016 -0.025544805 -0.038065035
0.025921643 -0.015434881 -0.038061399
0.027063437 -0.013117407 -0.038044706
-0.028463561 -0.012542676 -0.03804493
0.028698541 -0.0083849542 -0.038033899
-0.030258702 0.0074313572 -0.038066469
0.026430992 0.0141012 -0.038028996
-0.023527449 0.020266091 -0.038012601
-0.023206905 0.020593287 -0.038075514
0.019597368 0.022776254 -0.038015559
-0.018535955 0.024697194 -0.03801854
-0.010943559 0.028709278 -0.038049128
0.00065902469 -0.03069118 -0.037987635
-0.0071569057 -0.029957522 -0.037960101
-0.026421398 -0.016424157 -0.037943013
0.026395932 -0.014648063 -0.037931949
0.029642135 -0.0040634209 -0.037948493
0.029818546 -0.0020340586 -0.03798325
-0.031146754 -0.00096882362 -0.037971023
0.029891914 0.00082510198 -0.037962176
0.029443009 0.0051792469 -0.037965227
-0.030508582 0.0063091405 -0.037996963
0.022189396 0.020225354 -0.03791834
0.010789553 0.028197374 -0.037980717
-0.00052908843 -0.030704968 -0.037887041
-0.0097438088 -0.029307295 -0.037807383
0.015114593 -0.026520981 -0.03781328
-0.018870618 -0.024632376 -0.037886161
-0.020246439 -0.023485957 -0.037841268
-0.021243984 -0.022642408 -0.037877653
-0.023393795 -0.020445181 -0.037825197
0.025785334 -0.015733261 -0.03782887
-0.031122703 -0.0016433999 -0.037859995
0.02988074 -0.0012378717 -0.037870403
-0.022354309 0.0215357 -0.037881646
-0.018378817 0.024824591 -0.037868537
0.0073270216 0.029353503 -0.037881382
0.0025178778 0.030221086 -0.037848294
0.00061864144 -0.030728934 -0.037712149
0.015508279 -0.026272673 -0.037748527
0.018160759 -0.02447808 -0.037784521
0.020383295 -0.022475002 -0.037795674
-0.022628438 -0.021265533 -0.037779525
0.028605683 0.0088313734 -0.037754711
0.023367709 0.018875681 -0.037701819
0.021043118 0.021465406 -0.037795443
0.017304407 0.024674667 -0.037750885
-0.016373862 0.026157167 -0.037781861
0.0032177838 0.03015323 -0.03774932
-0.021574054 -0.022399522 -0.037687164
-0.030955158 -0.0040427297 -0.037659541
0.029983778 -0.00011892186 -0.03760035
0.029936071 0.00092595554 -0.037605371
-0.030749884 0.0052012946 -0.037666656
0.018031979 0.024148805 -0.037692498
0.0093516409 0.028764065 -0.037689809
0.0035658907 -0.030495485 -0.037511747
0.0038522386 -0.030459752 -0.037528154
-0.0072733536 -0.029989669 -0.037535857
0.013192211 -0.027552916 -0.03757114
-0.022010026 -0.021969546 -0.037536465
-0.024100523 -0.019747 -0.03751066
-0.029007364 -0.011438125 -0.037593678
-0.030256765 -0.0076795118 -0.037560642
0.029840326 -0.0026397083 -0.037576344
-0.031178992 0.0014042682 -0.037551392
-0.031050881 0.003610641 -0.037519168
-0.029560689 0.0099944258 -0.037581857
0.025883283 0.015172549 -0.037590753
-0.025453772 0.017917413 -0.037562333
0.0219224 0.020576123 -0.037586082
0.010232444 0.028468776 -0.037519988
-0.0016699746 0.030409787 -0.037508257
-0.0008584669 0.030402809 -0.037558097
0.00079705665 0.030403152 -0.03755565
-0.0062503838 -0.030239463 -0.037483729
-0.013276014 -0.02798745 -0.037461031
-0.022376372 -0.021600559 -0.037439737
-0.028063469 -0.013691436 -0.037405465
0.02720548 -0.012888769 -0.037432272
0.027323879 -0.012406062 -0.037479166
-0.030608287 -0.0062122522 -0.037403181
-0.031209134 -0.0010711759 -0.03747315
0.028793719 0.0083285226 -0.037498131
-0.027762488 0.014244086 -0.037422113
0.013859792 0.026852921 -0.037418671
-0.0066940133 -0.030150935 -0.037365746
-0.025024027 -0.018546369 -0.037337013
-0.026662894 -0.016168429 -0.037349902
-0.026931729 -0.015710074 -0.037323333
0.028651744 0.008853402 -0.037394352
0.027067557 0.013024408 -0.037343539
-0.025332598 0.018126266 -0.037361503
0.023491431 0.018789742 -0.037359457
-0.023338184 0.020608392 -0.037303057
-0.018686857 0.024704505 -0.037353802
-0.016434386 0.026194159 -0.037302751
-0.011799511 0.028503316 -0.037308365
-0.0083281128 0.029639864 -0.037364513
-0.016907576 -0.026030876 -0.037282333
0.017865341 -0.024798498 -0.037284613
-0.022151031 -0.021879472 -0.037239105
0.021771612 -0.021137264 -0.037227631
-0.029814761 -0.0092844134 -0.037291702
0.029866919 -0.0029811717 -0.037244849
0.028902858 0.0080850162 -0.037250124
-0.012149585 0.0283862 -0.037236072
-0.0054421886 0.030299176 -0.03723754
0.0021133409 -0.030715344 -0.037148766
0.010182291 -0.028916001 -0.037111469
-0.018069929 -0.025282964 -0.037181258
0.026464965 -0.01475122 -0.037100449
-0.029516723 -0.010356989 -0.037130419
0.029772829 0.003947671 -0.037172638
0.02955823 0.0051511526 -0.037189454
0.024150036 0.017960208 -0.037124295
0.016492438 0.02530174 -0.037195608
-0.01643521 0.026210766 -0.037195757
0.01293049 0.027361661 -0.037150353
-0.01288048 0.028099075 -0.037143342
0.0010854593 -0.030816769 -0.037071191
-0.0066148052 -0.030217566 -0.037025928
-0.0081918649 -0.029837023 -0.037074007
0.015324632 -0.026503172 -0.037079606
-0.017460976 -0.025709327 -0.037023667
-0.023532348 -0.020461721 -0.037006944
-0.024642121 -0.019114694 -0.037095871
-0.030457349 0.0072721131 -0.037011042
-0.029936142 0.0089818947 -0.037076272
0.028672194 0.0089752041 -0.03700484
0.027414862 0.01232562 -0.037042592
-0.027008444 0.015640613 -0.03709197
0.0090792114 -0.029334234 -0.036996655
0.015258329 -0.026560094 -0.036998458
-0.01982649 -0.023989044 -0.036998793
-0.022138814 -0.021947175 -0.036964912
-0.029076217 -0.011499668 -0.036954463
-0.030021442 -0.0087672584 -0.036929194
-0.030076934 0.0085922023 -0.036907617
-0.02530548 0.018261729 -0.036929939
-0.015764184 0.026683275 -0.036926828
0.012405775 0.027651595 -0.036981754
-0.0088840947 0.029559404 -0.036991738
-0.0078333206 0.029818391 -0.036919456
0.016772233 -0.025592044 -0.036829822
0.018446829 -0.024409007 -0.036828775
0.027961791 -0.011113701 -0.036884133
-0.029715359 -0.0098106321 -0.036885265
-0.03121884 -0.0023892892 -0.036843162
0.030050818 -0.00082221552 -0.036830101
-0.030553894 0.0069843708 -0.036815666
0.015796904 0.025814656 -0.03686462
0.0016459902 0.030464463 -0.036844496
-0.019680792 -0.02416287 -0.036710501
0.023954682 -0.018681364 -0.036755826
0.029452387 -0.0060977619 -0.036759783
0.028126281 0.010763256 -0.036796752
0.027570626 0.012072314 -0.036737598
0.025696825 0.015727954 -0.036760453
0.025153134 0.016671341 -0.036754433
0.023541622 0.018865006 -0.036750782
0.023400139 0.01904591 -0.036789771
-0.015990324 0.026570899 -0.036774516
0.0054137083 0.029963236 -0.036795091
0.0018593605 -0.03081442 -0.036645826
0.0037540537 -0.030597931 -0.036609799
0.017751396 -0.024969801 -0.036697108
0.021104608 -0.021956082 -0.036654606
0.026013233 -0.015653087 -0.036654517
0.02751888 -0.012230949 -0.036628157
-0.031303257 0.0014321485 -0.036634315
0.03000275 0.0021923436 -0.03660379
0.029542647 0.0056504779 -0.036679666
-0.030608129 0.0068057547 -0.036652267
-0.029600799 0.010296999 -0.0366682
0.025846653 0.015504228 -0.036632638
0.018249901 0.024149165 -0.036689818
0.016359735 0.025476847 -0.0366714
0.01096952 0.028323634 -0.036693402
-0.0017979327 0.030528624 -0.036659297
0.0038527306 -0.030592024 -0.036569033
-0.010295399 -0.029284608 -0.03658627
0.021643071 -0.021406662 -0.036545388
-0.024174809 -0.019859608 -0.03658513
0.028672623 -0.0091853011 -0.036571432
0.029913571 -0.0036732559 -0.036522869
0.030110639 -0.00047347459 -0.036548331
0.030127974 0.00027571947 -0.036506839
0.029990055 0.0026345327 -0.036510658
-0.030256076 0.0081507862 -0.036579132
-0.022556815 0.021590976 -0.036529951
0.019227426 0.023356356 -0.036539696
-0.017779261 0.025433315 -0.036531132
0.010531666 0.028505435 -0.036542792
0.0073263403 0.029548068 -0.03653001
-0.0059855226 0.030308291 -0.036541924
0.00093133969 -0.030898374 -0.036475692
0.0060013253 -0.030233223 -0.03640664
-0.029156387 -0.011501637 -0.036411587
-0.030429006 0.0076564876 -0.036404718
0.027327351 0.012722226 -0.036494415
0.025711633 0.015785027 -0.036464978
0.025230857 0.016612008 -0.036485501
0.014903916 0.026472669 -0.036442712
0.011509959 0.028157935 -0.036485251
0.0075509646 0.02950382 -0.03646753
0.0062580537 0.029812731 -0.036450263
0.0042510098 0.030214626 -0.036456764
0.008740182 -0.029545795 -0.036392096
0.015950598 -0.026212333 -0.03634274
-0.018656814 -0.025032131 -0.036357164
-0.024714276 -0.019180544 -0.036386576
-0.027649339 -0.014744423 -0.036311604
-0.029771607 -0.0098716542 -0.036364328
0.029859947 0.0041142688 -0.036353044
0.024914924 0.017109627 -0.036369894
0.020066718 0.022691496 -0.036324132
-0.017467815 0.025661338 -0.036386501
-0.0023165378 -0.030927675 -0.036213148
-0.021948446 -0.022282228 -0.036297496
0.027137911 -0.013744118 -0.036299057
0.029666824 0.0052984315 -0.036242731
0.026508588 0.014457591 -0.036275901
-0.023430364 0.020720096 -0.036254399
-0.010573767 0.029100234 -0.036250401
-0.0053480859 0.030443091 -0.036251802
-0.0032055394 0.030623619 -0.036251605
0.0065627065 -0.030136742 -0.036146965
-0.016676359 -0.026370201 -0.036140718
0.021277815 -0.021862136 -0.036195289
-0.025192602 -0.018584903 -0.03618237
0.02451065 -0.018081538 -0.036100537
0.026624426 -0.014733063 -0.036137108
0.028607052 -0.0096192677 -0.036131043
0.029550182 -0.0060727438 -0.036102824
-0.031320911 -0.0022573881 -0.036155548
-0.031039679 0.004718909 -0.036195323
0.029526357 0.0061538592 -0.036169808
0.024824165 0.01729326 -0.036106579
0.020130627 0.022661252 -0.036196176
0.018681696 0.023885038 -0.036152463
-0.015009068 0.027175726 -0.036171384
-0.0012995112 0.030594885 -0.036185928
-0.026683617 -0.016485238 -0.036062997
-0.030319389 0.0081786243 -0.036078256
0.026122663 0.015187021 -0.036058061
-0.023772668 0.020391347 -0.036083765
0.020776955 0.022100061 -0.036067128
-0.020316711 0.023619397 -0.036031082
-0.008241158 0.029845547 -0.036019899
0.016254809 -0.02607079 -0.035985813
0.028400304 -0.010385141 -0.035976782
-0.031399891 0.0013680304 -0.035957538
0.028726842 0.0093314815 -0.03590085
-0.024358239 0.019757589 -0.035956033
-0.020444818 0.0235349 -0.035965472
-0.016380224 0.026444871 -0.035960961
0.0062688114 0.029877195 -0.035984416
-0.017548665 -0.025838844 -0.035882395
0.020233471 -0.022977449 -0.035833001
-0.030686803 -0.0069983201 -0.035842862
0.030103998 0.0021885878 -0.035883263
-0.030914441 0.0057088723 -0.035840884
-0.030202318 0.0086957179 -0.035814442
0.02535386 0.016566364 -0.035887528
-0.023215767 0.021024395 -0.035869598
0.018900994 0.023754958 -0.035857312
-0.010906333 0.029031232 -0.035885237
0.0089675933 0.029174726 -0.035871387
0.0061067101 0.029932447 -0.0358674
0.0044637439 0.030276153 -0.035843767
0.00026206626 -0.031002514 -0.035715733
-0.011829983 -0.028842408 -0.035788476
0.023121638 -0.019993272 -0.035757333
-0.028924627 -0.012283456 -0.035704792
0.030085662 0.0028491709 -0.035739638
-0.029677946 0.010491158 -0.035722539
-0.028334104 0.013630447 -0.035768349
-0.022236329 0.022093151 -0.035716314
-0.012901293 0.028291721 -0.035788182
-0.0048482325 0.030566672 -0.035768591
0.0023198458 0.030544907 -0.035714831
-0.0084628947 -0.029970761 -0.03566825
-0.0088842399 -0.029874582 -0.035642132
0.02179133 -0.021414721 -0.035698898
0.026356883 -0.015316367 -0.035689477
0.026821077 -0.014520385 -0.035659496
-0.029661562 -0.010561671 -0.035689477
0.028740153 -0.0093961759 -0.035677224
0.02873064 0.0094471285 -0.035637919
0.017634466 0.024804996 -0.035677306
-0.011489807 0.028849259 -0.035672013
-0.0057408707 0.030482948 -0.035615738
0.00024811347 -0.031024497 -0.035555318
0.012534866 -0.0282006 -0.035500325
0.029219959 -0.007873253 -0.035513833
-0.031365819 -0.0028420947 -0.035580277
-0.031355035 0.003136069 -0.035534132
-0.031324767 0.003589415 -0.035562247
-0.03039228 0.0081741326 -0.035578098
0.026595742 0.014502425 -0.03557656
0.0045834156 0.030309584 -0.03550728
-0.0022485056 0.030686505 -0.035532389
-0.031364806 0.0032254392 -0.035425015
0.02739471 0.012928395 -0.0354692
-0.025212573 0.018736351 -0.035405502
-0.021442745 0.022872096 -0.035481498
-0.016713565 0.026309539 -0.035437513
0.012698885 -0.028137848 -0.035372376
-0.014535356 -0.027677134 -0.035360251
-0.031403605 -0.0026903693 -0.035369385
0.030034322 0.003968922 -0.035306551
0.028752841 0.0095251165 -0.035326201
0.027735682 0.012177076 -0.035358444
0.027561713 0.0125838 -0.035348769
0.026849223 0.014120344 -0.035373081
-0.026568376 0.016878221 -0.035357449
-0.02174494 0.022667093 -0.035360154
0.02018721 0.022763968 -0.035374206
0.012581713 0.027816933 -0.035362136
0.0023202922 0.030599151 -0.03532958
0.011287156 -0.028778682 -0.03529555
-0.020050071 -0.024120001 -0.035217993
0.020890227 -0.022461165 -0.03523092
-0.027685797 -0.014967671 -0.035266653
0.027484244 -0.012944212 -0.035268374
-0.029362677 -0.011412749 -0.035286248
0.028304011 -0.010894326 -0.035260037
-0.030856792 -0.0065327715 -0.035211165
0.030236352 -0.0013540501 -0.035285991
0.030258438 0.000987623 -0.035280682
0.028660927 0.0098570324 -0.035275176
-0.026210926 0.017423373 -0.035283308
0.023236845 0.019624257 -0.035258241
-0.019397819 0.024487287 -0.035297282
-0.015215987 0.027209787 -0.035250727
0.010421383 0.028732929 -0.035285056
0.0057114353 0.030109297 -0.035289261
0.027514704 -0.012873789 -0.035177849
-0.031555068 0.0006433925 -0.03513455
0.030252639 0.0014746804 -0.035119724
-0.029810645 0.010342468 -0.035106078
-0.027079079 0.016040446 -0.035186712
0.022815678 0.020136345 -0.035100326
0.02046214 0.022579914 -0.03511899
0.014393084 0.026946906 -0.035108835
-0.013884386 0.027891153 -0.035166573
-0.0012772755 0.030740255 -0.035147399
-0.00019231346 0.030741919 -0.035135522
0.0019541765 -0.031021737 -0.035062872
0.0079049841 -0.029973799 -0.035045065
-0.009875725 -0.029658031 -0.035073061
0.017523814 -0.025396533 -0.035008002
-0.018834071 -0.025134753 -0.035020709
0.02069308 -0.022688627 -0.035053674
-0.031055596 -0.005495579 -0.035096765
-0.031408142 0.0034212661 -0.035026226
0.023041669 0.019915026 -0.035011027
0.022745751 0.020220969 -0.035048846
0.0015808742 0.030721623 -0.035073798
0.0026091316 -0.03096465 -0.03492178
-0.0049645156 -0.030794583 -0.034934536
-0.012414068 -0.028748048 -0.034977727
-0.015506084 -0.027258709 -0.03490968
-0.021050211 -0.023337141 -0.034902964
0.030326014 -0.00073745032 -0.034902658
0.029026046 0.0088063646 -0.034929093
-0.030163143 0.0092360983 -0.034957357
0.027694263 0.012431938 -0.034908999
-0.026164122 0.017561127 -0.034956977
-0.026101062 0.017652467 -0.034928054
0.024095707 0.018543664 -0.034946568
0.016933478 0.025394034 -0.034913376
0.0090576233 0.029283447 -0.034921557
0.0041731382 0.030430365 -0.034990549
-0.014524441 -0.027761247 -0.034847487
-0.019562161 -0.024601433 -0.034815364
0.02517803 -0.017472859 -0.034817453
0.02883501 0.0094768824 -0.03486269
-0.030068073 0.0096108485 -0.034837645
0.018014411 0.024681425 -0.034858376
0.015590139 0.026283655 -0.03487701
-0.013698443 0.028027743 -0.034878295
0.011891691 0.028242871 -0.034855273
-0.011564581 -0.029085826 -0.034781691
0.011344999 -0.028841686 -0.034719136
0.016137587 -0.026352307 -0.034739498
0.018565806 -0.024684476 -0.034730833
0.027568942 -0.012872612 -0.034779679
-0.030402299 -0.0085541457 -0.034712728
0.029618047 -0.006789953 -0.03473565
-0.031626582 -0.00034345221 -0.034740824
-0.031509876 0.0024130801 -0.034712855
-0.029465124 0.011358449 -0.034756757
-0.029371122 0.011582261 -0.034739707
0.027332172 0.013318831 -0.034774676
0.027298609 0.013401706 -0.034760337
-0.025213353 0.018893095 -0.034717903
-0.015936162 0.026920766 -0.034765884
-0.010981034 0.029164849 -0.034756988
-0.0099495398 0.029544391 -0.034728155
-0.0089897336 0.029836766 -0.034794707
0.0072802142 0.0298142 -0.034756031
0.0013677849 -0.03114213 -0.034687027
0.02303277 -0.020310506 -0.034614492
-0.028484657 -0.013662899 -0.034665775
-0.03148308 0.0030690732 -0.034629725
0.030225614 0.0031848056 -0.034602113
-0.021658435 0.022844058 -0.03469988
0.002673263 0.030659711 -0.03460712
-0.0035353992 -0.031016126 -0.034539483
-0.0031137201 -0.031059165 -0.034584798
0.011220094 -0.028904669 -0.03459901
0.017732993 -0.025337789 -0.034527354
0.026063994 -0.016131276 -0.034541078
0.029608209 -0.0070323171 -0.034504201
0.030356195 0.0010977669 -0.034537748
-0.029999766 0.0099845752 -0.034532972
0.024955245 0.017476618 -0.034573216
-0.01614834 0.026825748 -0.034536369
-0.0013404918 0.030829269 -0.034511507
-0.017001614 -0.026427325 -0.034488183
-0.018478461 -0.025459988 -0.034463786
-0.021755576 -0.022827841 -0.034441371
0.02887946 -0.0095245922 -0.034460723
0.02441508 0.018227324 -0.03446598
0.022651594 0.020449366 -0.034418412
0.021207329 0.021974407 -0.034446795
0.011511788 0.028460987 -0.034446377
-0.0072722817 0.030290991 -0.034451906
0.0076774587 -0.030121259 -0.034380917
-0.0087468112 -0.030089077 -0.034350365
0.022339113 -0.021099752 -0.03433774
-0.02678672 -0.01678372 -0.034322359
0.030028809 0.0047725579 -0.034348417
0.029780228 0.0061749583 -0.034357566
0.029283091 0.0082206214 -0.034370054
0.025801109 0.016233012 -0.034311216
-0.0081505841 0.030103087 -0.034304719
0.0017507717 -0.031153671 -0.034278922
-0.0042178943 -0.030979238 -0.03422866
0.0035439176 -0.03094136 -0.034298677
-0.022727959 -0.021859843 -0.034275122
0.027520845 -0.013349943 -0.034223989
0.029259961 -0.0083586164 -0.03424561
-0.03164494 -0.0012076268 -0.034240402
0.029173482 0.008663944 -0.03421187
-0.029277161 0.0119684 -0.034253243
0.028015921 0.011914545 -0.034263019
-0.023904223 0.020609466 -0.034293205
-0.023196016 0.021362577 -0.034280907
0.021347083 0.021865454 -0.034254719
0.019024987 0.023937773 -0.034287468
-0.016050205 0.026943054 -0.034207236
0.014503852 0.027029615 -0.034225691
0.013063131 0.027748073 -0.034258235
0.010811212 0.028744452 -0.03425524
-0.0091552492 0.029873393 -0.034243587
-0.0027220398 0.030888829 -0.034216765
-0.0023802158 0.030876875 -0.034206282
-0.012115424 -0.028983075 -0.034111477
0.020014914 -0.023500293 -0.034110617
-0.02999023 -0.010194093 -0.034161169
0.030315112 -0.002711809 -0.034160294
-0.031646676 0.0014659744 -0.034118161
-0.012136633 0.028831948 -0.034141645
-0.018125184 -0.025764924 -0.034021255
0.026745442 -0.015079819 -0.03406005
-0.031487629 -0.0038338481 -0.034097645
0.030248277 0.0037366038 -0.034089494
0.029822819 0.00620005 -0.034026794
0.024338562 0.01841991 -0.034082878
-0.025961742 -0.018074464 -0.033904638
-0.027023129 -0.016488107 -0.033906929
-0.027579254 -0.015518555 -0.033929981
0.029793102 -0.0064465017 -0.033930123
-0.031389862 -0.0045198207 -0.033931009
0.0304245 0.0013821798 -0.033932474
0.025586337 0.016695177 -0.033989143
0.018162221 0.024725392 -0.033939011
0.013464502 0.027592653 -0.033963572
0.004335091 0.030556493 -0.033961266
0.022017462 -0.02154436 -0.033806499
-0.02417402 -0.020417996 -0.033819992
-0.027606789 -0.015484069 -0.033881802
-0.028874107 -0.013051242 -0.033824138
-0.03116544 -0.0058867019 -0.033811748
