# .PCD v0.7 - Point Cloud Data file format
VERSION 0.7
FIELDS x y z
SIZE 4 4 4
TYPE F F F
COUNT 1 1 1
WIDTH 1234
HEIGHT 1
VIEWPOINT 0 0 0 1 0 0 0
POINTS 1234
DATA ascii
-0.0057891607 -0.010947568 0.0040173302
-0.0081432629 -0.0093391202 0.0040555834
-0.010252981 -0.0069733253 0.0040776385
0.010415365 -0.0068203784 0.0040155761
-0.011931931 0.0033140224 0.0040761707
-0.01166649 0.0042613936 0.0040732883
-0.011526477 0.0047611073 0.0040150378
0.011243213 0.0051987125 0.0040641818
-0.007583417 0.0098619806 0.0040550679
-0.007257882 0.010166008 0.0040477831
0.0067060525 0.010424284 0.0040182043
0.0061415941 0.010822721 0.0040457994
0.0011190021 0.012335969 0.0040122839
-0.00019440113 -0.012425807 0.0041981651
0.006569644 -0.010520571 0.0041408469
-0.0086004529 -0.008912134 0.0041557876
0.0093860915 -0.0080855247 0.0041796202
-0.010843117 -0.006002889 0.0041426728
-0.010862794 -0.0059705321 0.0041043013
-0.011629071 -0.004394942 0.0041509401
0.01227282 -0.0016528582 0.0041074604
0.01083423 0.0061402833 0.0041532926
-0.0078024734 0.009657396 0.004179284
-0.006821407 0.010412702 0.0041632513
-0.005349379 0.011175444 0.0041243909
0.0050889882 0.011333779 0.004184986
-0.0046846103 0.0115199 0.0041866126
0.0034539709 0.011914863 0.0041702986
-0.0019874612 -0.012235122 0.0042699417
0.0037808926 -0.011798675 0.0042647524
0.0074622761 -0.0098904818 0.0042003635
0.0075401487 -0.0098355142 0.004249962
0.010587117 -0.0066092657 0.0042147283
-0.012094978 -0.0027320979 0.0042214682
-0.012129894 0.0026074832 0.0042440956
0.012040866 0.0033404522 0.004283851
-0.010151558 0.0071401098 0.0042508608
-0.0098131467 0.0076966044 0.004217797
0.0096144909 0.007804784 0.0042460505
0.0091361757 0.0083927121 0.0042630006
-0.008466281 0.0090374416 0.0042062029
-0.0053625964 0.011168596 0.0042950325
-0.0037962471 0.011859251 0.0042112269
6.7651039e-05 -0.012407883 0.0043728752
0.01001801 -0.0073087923 0.0043528099
0.010467041 -0.0067568589 0.0043917745
-0.011185586 -0.005439722 0.0043300679
-0.011564852 -0.0046241442 0.0043586129
-0.011945338 -0.0032661697 0.0043779733
0.012318676 -0.0013192204 0.0043761935
0.012432032 0.00049450254 0.0043033557
0.010699102 0.0064513804 0.0043982621
-0.0081520863 0.0093308799 0.0043060891
0.0051938244 0.011296519 0.0043339627
-0.00070154597 0.012460498 0.0043606069
0.0001783263 0.012400312 0.0043294095
-0.0011590753 -0.012407262 0.0044375407
-0.0022292568 -0.012184876 0.0044398317
0.0046732649 -0.011481527 0.0044423454
0.0059586209 -0.010951878 0.0044514574
-0.010128655 -0.0071777711 0.0044314051
0.011293761 -0.0050823377 0.0044242013
-0.01226522 0.0021244949 0.0044095912
0.011938723 0.0035974877 0.0044848737
0.010051243 0.0072679427 0.004457924
0.0037369137 0.011814306 0.0044229049
0.00057401147 -0.012373246 0.0045664664
0.0036639438 -0.011840239 0.0045616627
-0.005290682 -0.011205859 0.0045787962
0.0077726697 -0.0096713826 0.0045354869
0.0082299197 -0.0093486207 0.0045729186
0.0093403198 -0.0081417859 0.0045644939
0.012442486 0.00041844213 0.0045124395
0.010532323 0.0066766161 0.0045657959
-0.008496237 0.0090094646 0.0045724167
-0.0074577248 0.0099793691 0.0045024203
0.006511095 0.010561899 0.0045174006
-0.0053402949 0.011180151 0.0045266273
-0.0043639028 0.011686077 0.0045639277
-0.0035961731 0.011900828 0.0045879106
-0.0027067864 0.012085644 0.0045605213
0.0028828518 0.012117838 0.0045199841
-0.00011997053 0.012420717 0.0045587234
-4.2339088e-05 0.012415406 0.0045922603
3.7898542e-05 -0.012409918 0.0046335948
0.00080198835 -0.012357653 0.0046502147
0.0042358907 -0.011636969 0.0046463516
0.006829191 -0.010337363 0.0046949908
-0.010075547 -0.0072651049 0.0046346253
0.01044835 -0.0067798337 0.004623184
0.011265812 -0.0051466813 0.0046977792
0.012210313 -0.0021076226 0.0046321619
0.012289735 -0.0015297962 0.0046900678
0.012288924 0.0015356904 0.0046476386
0.012190952 0.0022484898 0.0046489257
0.0060569956 0.010882439 0.0046090148
-0.0046823127 0.011521091 0.0046799891
0.0017767552 0.012290977 0.0046964707
-0.0011776278 -0.012403406 0.0047689988
-0.00096205622 -0.012448203 0.0047065793
0.0011260649 -0.012335485 0.0047990791
-0.0024233777 -0.012144538 0.0047720801
-0.0048873816 -0.011414833 0.0047470136
-0.0059550987 -0.010861587 0.0047931685
0.0067213592 -0.010413479 0.0047467314
-0.0080809575 -0.0093973102 0.0047169537
-0.01103035 -0.005694997 0.0047420356
-0.012086552 -0.0027621733 0.004798606
-0.012344602 -0.0018411763 0.0047250949
0.012124667 0.0027307509 0.0047644973
-0.011864148 0.0035559391 0.0047490727
0.011812572 0.0038879123 0.0047614165
0.0046210219 0.011500093 0.0047616633
0.001563372 0.012305574 0.0047654244
-0.0056583434 -0.011015353 0.0048388578
0.0093180109 -0.0081692068 0.0048699956
-0.010061702 -0.0072878716 0.0048605534
-0.01038005 -0.0067643709 0.0048941863
0.012146425 0.0025724475 0.0048029218
-0.011720417 0.0040689218 0.0048856558
0.0084733292 0.0091768038 0.0048806891
0.0082400413 0.0093414756 0.0048427838
0.0059284358 0.010973185 0.0048974901
0.0046851621 0.011477297 0.0048682792
0.00014168487 0.012402819 0.0048221145
-0.00053771981 -0.012449292 0.0049945414
0.00050041394 -0.012378281 0.0049118698
-0.0053923442 -0.011153181 0.0049070246
0.0073571065 -0.0099647194 0.0049675815
-0.0095959762 -0.0079823816 0.0049122265
0.010669804 -0.0065076305 0.0049280971
-0.010563024 -0.006463482 0.0049449345
-0.012252243 -0.0021708123 0.0049122265
-0.012383575 0.0013922794 0.0049749911
0.012168504 0.0024118051 0.0049841255
-0.010031857 0.0073369518 0.0049921442
-0.0069259098 0.010358552 0.0049556415
0.0030909218 0.012043891 0.0049280971
-0.0048467601 -0.011435881 0.0050639412
0.0059761084 -0.010939534 0.0050323764
0.0060500451 -0.010887343 0.0050486783
-0.0087481681 -0.0087741781 0.0050532464
0.0093062744 -0.008183633 0.0050580576
0.010070086 -0.0072447835 0.0050019324
0.010467876 -0.0067558344 0.0050705131
-0.010745238 -0.0061638434 0.0050930958
0.012322534 -0.0012911571 0.0050070193
-0.012383575 0.00017000284 0.005012339
-0.012383575 0.0014724142 0.0050112177
0.010096234 0.0072126416 0.0050835805
0.0086157266 0.0090324301 0.0050793942
-0.0051788287 0.011263817 0.0050953645
-0.00098142307 0.012444179 0.0050016791
-0.00012624089 -0.012421144 0.0051874537
0.0009166341 -0.012349811 0.0051882621
-0.0029917513 -0.012026427 0.0051414138
-0.0034761922 -0.01192576 0.0051625548
0.0037064299 -0.011825139 0.0051511684
0.0042090071 -0.011646523 0.0051262788
0.0044831862 -0.01154908 0.0051604472
-0.0074748793 -0.0099633466 0.0051528262
-0.010376061 -0.0067709289 0.0051840153
-0.011532854 -0.0047383434 0.0051076505
0.011430099 -0.0047684568 0.0051414724
-0.012355598 -0.0018019353 0.0051318118
0.012156934 0.0024959906 0.0051667709
0.011390289 0.0048601087 0.0051971078
-0.011274564 0.0052934051 0.0051323078
0.010923802 0.0059340689 0.0051161498
-0.0075774807 0.0098675247 0.0051202942
0.004427908 0.011568726 0.0051072799
0.0039121299 -0.011752034 0.0052324552
-0.0049624844 -0.011375917 0.0052519087
-0.0058114231 -0.010936033 0.0052257837
-0.0076724384 -0.0097788395 0.00523738
-0.010389662 -0.0067485645 0.005202678
0.012303416 -0.0014302478 0.0052841455
0.012493875 -4.4556728e-05 0.0052324552
0.011673312 0.0042085233 0.0052776309
0.011346427 0.0049610892 0.0052450709
0.0092115775 0.0083000306 0.0052979998
0.0059576067 0.010952594 0.0052299313
-0.0052953707 0.011203429 0.0052821403
-0.0034863441 0.011923651 0.0052735629
0.00057597272 -0.012373112 0.0053105857
0.00061186554 -0.012370657 0.0053646564
0.0027704206 -0.012157797 0.0053803804
0.0035653163 -0.01187529 0.0053848885
0.0036950195 -0.011829194 0.005369328
0.0056511071 -0.011134 0.0053143613
-0.0079367841 -0.009531958 0.005337059
-0.0096398983 -0.0079413606 0.0053674513
0.010887234 -0.0060182596 0.0053879693
-0.011227883 -0.005370168 0.0053616222
-0.012383575 -0.00076361408 0.0053611393
0.012257965 0.0017609261 0.0053395182
0.012146719 0.0025703127 0.0053030346
-0.012040299 0.0029272498 0.0053909211
-0.011839164 0.0036451076 0.0053371387
0.011898587 0.0036898905 0.0053127944
0.010011605 0.0073166648 0.0053341561
0.0083255731 0.0092811007 0.0053469306
-0.0062854588 0.010690408 0.0053287684
-0.0057994733 0.010942225 0.005346423
-0.0051904358 0.011257803 0.0053538531
0.0073697791 -0.0099557741 0.005433673
-0.0075858617 -0.009859696 0.0054333461
0.0088100331 -0.0087935962 0.0054070619
-0.0091134096 -0.0084330663 0.0054609384
0.011415998 -0.0048009199 0.0054725055
-0.011680961 -0.0042097471 0.0054687774
-0.012060635 -0.0028546713 0.0054375241
0.01233271 -0.0012171254 0.0054700021
-0.012383575 -0.00021076147 0.0054391902
-0.011957108 0.0032241633 0.0054503446
-0.010196577 0.0070660808 0.0054141385
0.009600929 0.0078214528 0.0054775123
-0.0085221278 0.0089852856 0.0054315785
0.00024258124 0.012395917 0.0054424461
0.00042537088 -0.012383414 0.0055197207
0.0016574578 -0.012299137 0.0055999272
-0.0066412454 -0.010506054 0.0055039376
0.00807878 -0.0094553065 0.0055924468
0.010307607 -0.0069528287 0.0055674966
0.011029169 -0.0056914897 0.0055538639
-0.012383575 0.00071126019 0.0055705775
0.01229134 0.0015181133 0.0055287872
0.012234793 0.0019295255 0.0055487715
-0.011327128 0.0052069663 0.0055683278
0.010837892 0.006131853 0.0055650026
-0.010217709 0.007031328 0.0055117663
0.0099227447 0.0074258894 0.0055217845
-0.0074251378 0.010009802 0.0055607622
0.0061701313 0.010802578 0.0055312868
0.0051897941 0.011297951 0.0055533908
0.0052329232 0.011282623 0.0055510076
-0.00060155382 -0.012453658 0.0056004603
0.00094639155 -0.012347776 0.0056086536
-0.0058184597 -0.010932388 0.0056119259
0.0082009882 -0.0093690418 0.0056098998
-0.010384763 -0.0067566219 0.0056544361
0.011904087 -0.0036772266 0.0056011733
-0.012383575 -0.0004144455 0.0056553446
0.012435449 -0.00046963137 0.0056248512
-0.0120376 0.0029368806 0.0056735286
0.011269826 0.0051374426 0.0056833383
-0.010669391 0.006288569 0.0056421924
-0.01057588 0.0064423415 0.0056051649
-0.0075306334 0.0099112764 0.005668994
-0.0050094817 0.011351566 0.0056374473
-0.004631117 0.011547618 0.0056847874
-0.0014160558 0.012353861 0.0056887381
0.0015920447 0.012303611 0.0056008738
-1.5829515e-05 -0.012413593 0.0057795923
0.00048394839 -0.012379408 0.0057417154
-0.0036350957 -0.01189274 0.0057500722
0.0087537561 -0.0088627692 0.0057637775
-0.0097317602 -0.0078304391 0.0057889773
-0.0098620206 -0.0076162331 0.0057246638
0.009780515 -0.0076007126 0.0057491604
-0.0099061262 -0.0075437054 0.0057600895
-0.010476502 -0.0066057635 0.005708097
0.010787589 -0.0062476606 0.0057787765
-0.011102042 -0.0055771051 0.0057937196
-0.011490312 -0.0048901765 0.0057632355
0.011432331 -0.0047633201 0.0057764407
0.012327758 -0.0012531481 0.0057739615
-0.010106907 0.0072135348 0.0057996772
0.0078909844 0.0095878672 0.0057976148
-0.0053185397 0.011191425 0.0057005938
-0.0045062453 0.011612321 0.0057798196
-0.0036025271 0.011899507 0.0057816706
0.0022538304 0.012258344 0.0057412228
-0.0033985476 -0.011941895 0.0058314921
0.006445975 -0.010607867 0.0058171796
0.0068107839 -0.010350356 0.0058111148
-0.0073303794 -0.010098301 0.0058040209
0.011488743 -0.0046334444 0.0058606118
-0.012370867 -0.0017474373 0.0058374647
-0.012383575 0.00016879837 0.0058073676
0.012263088 0.001723663 0.0058569014
-0.012173704 0.0024511225 0.0058754701
0.012053274 0.0032501777 0.0058606118
0.011609057 0.0043564532 0.005812984
0.00147115 0.012311881 0.0058755465
-0.0003503038 0.012436472 0.005859375
-0.00010529197 0.012419713 0.0058704969
0.0062211407 -0.010766571 0.005987003
-0.010765378 -0.0061307237 0.0059326072
0.012128285 -0.0027044234 0.0059576859
-0.012383575 0.00067002862 0.0059232581
0.011155162 0.0054014237 0.0059272889
-0.010679331 0.0062722256 0.0059542456
-0.0089917667 0.0085466728 0.005959122
0.008380047 0.0092426492 0.0059269485
0.007564038 0.0098186508 0.0059515927
0.0042183343 0.011643209 0.0059149526
0.0033716855 0.011944108 0.0059137158
-0.0027533628 0.012075965 0.0059900596
-0.0033138196 -0.011959502 0.0060677789
-0.0046024173 -0.011562489 0.0060468428
-0.0050046574 -0.011354065 0.0060773832
0.010724206 -0.0063935854 0.0060770717
-0.010798709 -0.006075914 0.0060899565
-0.012380007 -0.0017148152 0.0060034106
-0.012383575 -0.0016402847 0.0060126372
-0.012383575 -0.00080066203 0.0060554519
-0.01178189 0.0038495266 0.0060577085
-0.011745793 0.0039783549 0.0060980264
-0.010197407 0.0070647141 0.0060697943
-0.0088838814 0.0086474307 0.0060733897
-0.0084719518 0.009032147 0.0060800523
0.0071177669 0.010133663 0.0060614441
-0.00065056409 0.012457009 0.0060270373
-0.0023413647 -0.01216158 0.00616703
-0.0022011823 -0.01219071 0.006130781
0.0033471272 -0.011952835 0.0061394745
-0.0051315445 -0.011288317 0.0061173122
0.0074245026 -0.0099171456 0.0061154328
-0.0081968727 -0.0092890523 0.0061178133
-0.0092850821 -0.0082727354 0.0061687948
-0.010075377 -0.0072653843 0.0061507761
0.010175829 -0.0071148076 0.0061840117
-0.010401701 -0.0067287679 0.0061578355
0.012260329 -0.0017437381 0.0061619841
0.012498838 8.4500361e-06 0.0061001638
-0.012383575 0.00012170206 0.0061604381
0.012112182 0.0028215805 0.0061374921
0.012090068 0.0029824702 0.0061925743
0.010629219 0.0065575154 0.0061721886
-0.0078492584 0.0096137021 0.0061081219
0.0075031342 0.0098616416 0.006116638
0.0072441055 0.010044484 0.0061595384
0.0055143596 0.011182601 0.006139962
0.0034867064 -0.011903228 0.0062731602
-0.0040590353 -0.011804644 0.0062581403
0.0053988462 -0.011223655 0.0062768422
0.012200323 -0.0021803121 0.0062618144
-0.012321319 -0.0019242738 0.0062846178
-0.012383575 4.2667991e-05 0.0062361639
0.012357961 0.0010334004 0.0062075611
-0.012356475 0.0017988007 0.0062060263
0.0016103161 -0.012302361 0.0063900677
-0.0072459271 -0.010177174 0.0063619856
-0.0078885201 -0.009577034 0.0063908724
-0.012282552 -0.0020626381 0.0063827122
-0.012032215 0.0029561068 0.0063808849
0.011239331 0.0052076504 0.0063328976
0.010899715 0.0059895227 0.0063548051
0.003939461 0.01174232 0.0063572377
0.0033037579 -0.011968249 0.0064743231
-0.0049892915 -0.011362027 0.0064999973
0.0061433371 -0.010821491 0.0064930161
0.0086247213 -0.0090213735 0.0064037601
-0.0097873211 -0.0077390717 0.0064658504
-0.011155023 -0.0054899808 0.0064525092
0.012083236 -0.0030321772 0.0064306222
0.01237385 -0.00091780658 0.0064847134
-0.012383575 0.00016500018 0.0064656781
-0.012383575 0.00073405035 0.0064216843
0.011866038 0.0037648219 0.006452173
-0.011668794 0.0042531681 0.0064936886
-0.011434685 0.0050300974 0.0064178025
-0.01098053 0.0057769255 0.0064508403
-0.01072417 0.0061984891 0.0064795278
-0.0094620371 0.0081074703 0.0064422884
-0.0055282712 0.011082751 0.0064490316
0.003665487 0.01183969 0.0064556198
0.00082876941 0.012355821 0.0064871358
-0.00090936036 -0.012459153 0.0065081222
-0.0036519917 -0.011889229 0.0065308297
-0.0043542888 -0.011691058 0.0065586586
-0.005265573 -0.011218869 0.006556062
0.0061566164 -0.010812118 0.0065016928
0.010553034 -0.0066511603 0.0065597445
-0.012122694 0.0026331742 0.0065484126
-0.011911318 0.0033875867 0.0065070726
-0.011695232 0.0041588098 0.0065432247
-0.011157868 0.0054853018 0.0065580881
0.010137381 0.0071620662 0.006590982
0.0065284143 0.010549674 0.0065452354
-0.0039116261 0.011835276 0.006520438
-0.0038951975 0.01183869 0.0065417867
0.0034195995 0.011927078 0.0065669948
0.0010174278 0.012342917 0.0065923631
-0.00070208363 0.012460534 0.0065234629
-0.00083356374 -0.012469526 0.0066370489
0.0033924249 -0.011936736 0.0066532334
-0.0040085213 -0.01181514 0.0066988952
0.0037359514 -0.011814647 0.0066333888
0.0082120411 -0.009361241 0.0066924244
-0.0082662133 -0.0092242928 0.0066554286
0.0083254864 -0.0092811622 0.0066116778
-0.011276098 -0.0052908831 0.0066655753
0.011382421 -0.0048782239 0.0066671371
0.012079852 -0.0030568026 0.0066042794
0.01223827 -0.0019042211 0.0066285664
-0.012383575 -0.00053927599 0.0066537764
0.012097081 0.0029314489 0.0066611134
-0.0087066386 0.0088129649 0.0066490788
-0.0083620185 0.0091348169 0.0066001257
0.0069719618 0.010236584 0.0066345958
-0.0069313999 0.010355707 0.0066233557
-0.0022884167 0.012172583 0.0066700117
0.0018080246 0.012288838 0.0066994685
-0.00066680543 -0.01245812 0.0067733447
-0.0019210796 -0.012248916 0.0067742574
0.0082758944 -0.0093161678 0.006772968
-0.011777716 -0.0038644229 0.0067164241
-0.011939302 -0.0032877128 0.0067308703
0.012421302 0.00057256658 0.0067084921
-0.0087896027 0.0087354798 0.006749223
-0.0067960126 0.01042586 0.0067566223
-0.0030526579 0.012013771 0.0067568244
1.0787742e-05 -0.012411772 0.0068259155
0.00076929969 -0.012359888 0.006818559
0.0018817077 -0.012283798 0.0068987804
-0.0049201539 -0.011397852 0.0068884371
0.005180384 -0.011301296 0.0068676732
0.0090000574 -0.0085600233 0.0068439855
0.0093891248 -0.0080817947 0.0068041682
-0.011494577 -0.0048749563 0.00681704
0.012403551 -0.00070170657 0.0068688719
0.0064123403 0.010631609 0.0068137608
0.0050391662 0.011351485 0.0068635875
-0.0019049477 0.012252267 0.0068390863
0.00092379726 0.012349321 0.0068521081
0.0018715779 -0.012284491 0.0069907336
-0.0022401165 -0.012182619 0.0069497549
-0.0026387125 -0.012099791 0.0069981362
0.0036376291 -0.011849591 0.006960012
-0.0045829797 -0.011572561 0.0069934377
-0.006040758 -0.010817201 0.0069450838
-0.0062610861 -0.010703037 0.0069148643
-0.0062743644 -0.010696156 0.0069148643
0.0069422256 -0.010257574 0.0069226921
0.010444174 -0.0067849671 0.0069155209
0.011363123 -0.0049226498 0.0069597149
0.01152543 -0.0045489823 0.0069644898
0.011890202 -0.0037091936 0.0069811903
0.012391428 -0.00078991737 0.006971647
0.012499286 -5.1918064e-06 0.0069274716
0.012173135 0.0023781192 0.0069214962
-0.010964585 0.0058031417 0.0069038896
-0.01080374 0.0060676429 0.0069667022
0.010618683 0.0065704663 0.0069389688
0.0082065808 0.0093650958 0.0069747069
0.007785948 0.0096620098 0.0069949762
0.0031461376 0.012024267 0.0069406116
0.0012266928 0.012328602 0.0069083469
0.0024832296 -0.012242652 0.0070740925
0.0044551375 -0.011559049 0.0070800418
-0.0065867379 -0.010534297 0.0070121521
0.0072714454 -0.010025185 0.0070264833
0.0079095513 -0.0095747607 0.0070550591
-0.0083001135 -0.0091926325 0.007002918
0.011863371 -0.0037709652 0.0070229108
0.011781588 0.0039592474 0.0070522474
-0.01136102 0.0051512355 0.0070805708
-0.0099503109 0.0074710483 0.0070206402
0.0084348666 0.0092039527 0.0070621613
0.0068556909 0.010318657 0.0070990622
0.006635624 0.010473997 0.0070479177
0.0040976335 0.011686105 0.0070800418
-0.0030924033 0.012005513 0.0070795519
-0.0011426349 0.012410678 0.007095051
0.0034114067 -0.011929991 0.0071273968
0.0072096102 -0.010068834 0.0071951775
-0.0096144043 -0.0079651698 0.007133442
-0.0098408628 -0.0076510264 0.0071671726
-0.010738672 -0.0061746421 0.007192486
0.012482604 -0.00012656116 0.0071073798
0.012158534 0.0024843561 0.0071358792
0.011781741 0.0039588953 0.0071471655
-0.0069157491 0.010363818 0.0071043135
0.0049971095 0.011366432 0.0071578366
0.0041771848 0.011657832 0.0071797715
-0.00021259906 -0.012427052 0.0072461748
0.00039645965 -0.012385393 0.0072413562
-0.0033469624 -0.011952614 0.007219051
0.0036409004 -0.011848429 0.0072477767
-0.007623611 -0.0098244417 0.007237813
-0.01121207 -0.0053961733 0.0072555598
0.01225022 -0.0018172788 0.007248451
0.011706639 0.0041317968 0.0072556753
-0.011412284 0.0050669336 0.0072859302
0.010095648 0.0072133616 0.0072358968
-0.0099393874 0.0074890088 0.0072555598
-0.0080110058 0.0094626397 0.0072684633
-0.0079169367 0.0095504951 0.0072770715
0.0056559257 0.011132288 0.0072386838
-0.0041944571 0.011773877 0.0072899908
0.00021652249 -0.0123977 0.007348164
-0.001993794 -0.012233806 0.0073993322
0.0043929843 -0.011581138 0.0073865587
0.011082812 -0.0055679902 0.0073322705
-0.012383575 -0.0015996476 0.0073360512
-0.012383575 -0.001488595 0.0073149721
0.012141789 0.0026061723 0.0073971562
0.011874646 0.0037450048 0.0073053618
0.010746071 0.0063432478 0.0073665278
0.0031352509 0.012028136 0.007312268
-0.0018540784 0.012262838 0.0073180133
-4.1353633e-07 0.012412539 0.0073311506
0.0017940097 -0.012289796 0.007446575
-0.0050788326 -0.011315631 0.0074162418
0.010841428 -0.0061237146 0.0074865501
0.011814909 -0.0038825367 0.0074430453
-0.01209794 -0.0027215267 0.0074348981
-0.012383575 -0.0011392264 0.0074918414
0.012372861 -0.00092500739 0.0074418681
-0.012383575 2.5960253e-05 0.0074240933
0.012432876 0.00048835832 0.0074677095
-0.012383575 0.00076427695 0.0074045239
0.012230668 0.0019595358 0.0074289339
0.011766475 0.0039940421 0.0074495506
-0.011628261 0.0043978365 0.0074979952
-0.0098777488 0.0075903684 0.0074348981
0.0080191111 0.0094974255 0.0074036834
-0.0073976954 0.010035432 0.007474035
-0.0069943578 0.010323086 0.0074252794
0.0059437188 0.010962397 0.0074606771
0.0022468548 0.012258821 0.0074855415
0.00096855056 0.01234626 0.0074841725
-0.0011113298 -0.012417184 0.0075777974
-0.00035795549 -0.012436994 0.007547115
-0.0012365784 -0.012391157 0.0075486307
-0.005470424 -0.011112724 0.0075265532
-0.0059869005 -0.010845108 0.0075106048
-0.0072544874 -0.010169178 0.0075377757
0.010764896 -0.0062999078 0.0075798635
0.011637684 -0.0042905491 0.0075486982
-0.012383575 5.2537296e-05 0.0075283125
0.012461076 0.00028318467 0.0075801834
-0.011152286 0.0054944828 0.0075964136
-0.0094557544 0.0081133386 0.0075945421
0.0089308526 0.0086450884 0.0075850086
-0.008819663 0.0087074069 0.0075321137
0.008843787 0.0087521058 0.0075416649
0.0083406093 0.0092704864 0.0075489637
-0.0050746407 0.011317803 0.0075481953
-0.003838256 0.011850523 0.0075486298
-0.00082022359 -0.012468616 0.0076209651
0.00025596522 -0.012395002 0.0076414105
0.003551282 -0.011880279 0.0076182578
0.0050686896 -0.011340993 0.0076540075
0.0051785605 -0.011301944 0.0076808659
0.0052941777 -0.011260854 0.0076212781
0.008793761 -0.0088135954 0.0076225111
-0.0099496748 -0.0074720928 0.0076235346
-0.010355237 -0.0068051731 0.0076510501
0.010581503 -0.0066161668 0.0076551763
-0.011503531 -0.0048429985 0.0076232688
-0.011631846 -0.0043850346 0.007641146
-0.011926319 -0.003334048 0.0076974286
-0.011866344 0.0035481062 0.0076987753
-0.011813523 0.0037366205 0.0076483777
-0.010861324 0.0059729498 0.0076896255
0.010636494 0.0065485742 0.0076211412
-0.0097758081 0.0077580041 0.0076007359
0.0093060257 0.0081839385 0.0076820301
-0.0087325787 0.0087887384 0.0076492736
0.0086998828 0.0089289872 0.0076037347
-0.00144525 0.012347795 0.0076358514
0.00013336237 -0.012403388 0.007762698
-0.0042425916 -0.011748936 0.007729182
0.004591411 -0.011510617 0.0077438354
0.005351902 -0.011240338 0.0077531533
0.0055247471 -0.011178909 0.0077298516
-0.0056722118 -0.011008166 0.0077871196
-0.0073074386 -0.010119726 0.0077007804
-0.0074003497 -0.010032952 0.0077672694
-0.01011868 -0.0071941754 0.007717533
-0.010929023 -0.0058616232 0.0077482546
0.011281213 -0.0051112277 0.0077938931
-0.012383576 0.0009780511 0.0077991886
-0.012300352 0.0019991102 0.0077588418
-0.011726867 0.0040459046 0.0077018822
-0.0098128412 0.0076971054 0.0077217408
0.0087420903 0.0088771079 0.007705369
-0.0077612922 0.0096958559 0.0077018822
0.0078085549 0.0096460525 0.0077184392
0.0063733398 0.010659138 0.007768291
0.0061693713 0.010803115 0.0077030361
0.0052162954 0.011288533 0.0077464003
0.005059775 0.01134416 0.0077037043
-0.0046608252 0.011532225 0.0077925362
0.00371174 0.011823252 0.0077717835
0.0028253281 0.012138283 0.0077962177
-0.0015281701 -0.012330564 0.0078263525
-0.0045172391 -0.011606624 0.0078655006
0.0071854712 -0.010085872 0.007890299
-0.0074663013 -0.0099713588 0.0078982878
-0.0081148185 -0.0093656853 0.0078537995
0.0081978403 -0.0093712639 0.0078508435
-0.010175715 -0.0071003838 0.0078316703
-0.010715185 -0.0062132659 0.0078054629
-0.011340467 -0.0051850313 0.0078502716
0.012489502 -7.6375036e-05 0.0078647733
0.012457346 0.00031032501 0.0078606121
-0.012383575 0.00046351735 0.0078629144
-0.0094686467 0.0081012975 0.007859569
-0.0087991515 0.0087265633 0.0078000389
0.0039037575 0.011755009 0.0078055225
0.0037496972 0.011809763 0.0078461962
0.0030131459 0.012071533 0.0078508435
-0.0021936046 0.012192284 0.0078022354
-0.0012394981 0.01239055 0.0078925872
0.0010190659 -0.012342805 0.0079273926
-0.0052571455 -0.011223236 0.0079780761
-0.0073826071 -0.010049523 0.0079623982
-0.0077988487 -0.0096607814 0.0079185432
-0.0087954141 -0.0087300539 0.0079849744
0.0088138022 -0.0087889619 0.0079599852
-0.0096246647 -0.0079555875 0.0079842554
-0.010224461 -0.0070202271 0.0079883216
0.011306448 -0.0050531309 0.0079783285
0.012412938 0.00063341303 0.0079936013
-0.010703629 0.0062322677 0.0079745241
-0.0089968694 0.0085419081 0.0079026865
0.0081930384 0.009374653 0.0079118917
-6.4646447e-05 0.012416932 0.0079204403
-0.00029670392 -0.012432805 0.0080478452
0.0020899863 -0.012269552 0.0080418885
0.012114338 -0.0028058989 0.0080016106
-0.012383575 -0.0010350957 0.0080809109
-0.011618229 0.0044336389 0.0080786757
0.01116718 0.0053737564 0.0080961036
0.0096313544 0.007784056 0.0080603538
-0.0085758828 0.0089350818 0.0080207363
0.0047998051 0.011436554 0.008038477
-0.0025970084 -0.012108456 0.0081796143
0.0026775771 -0.012190794 0.0081162071
-0.003675048 -0.011884438 0.0081351297
0.0067386981 -0.01040124 0.0081674904
-0.0099352598 -0.0074957982 0.0081559774
0.010502609 -0.0067131403 0.0081709409
0.010898547 -0.0059922119 0.0081076669
0.011085111 -0.0055626994 0.0081941281
0.012487052 9.420031e-05 0.0081819575
-0.011660905 0.0042813276 0.0081260838
0.011410116 0.0048144627 0.0081191473
0.010034418 0.0072886255 0.0081965448
0.0098892218 0.0074670948 0.0081179971
-0.0097763883 0.0077570505 0.008139655
0.0093387477 0.0081437174 0.0081835864
0.0077632042 0.0096780639 0.0081577897
0.0013795164 0.012318149 0.0081237555
-0.004879008 -0.011419171 0.0082552303
0.008408838 -0.0092223259 0.0082903253
-0.011085209 -0.0056047868 0.0082213022
0.011140858 -0.0054343571 0.0082100183
-0.011257795 -0.0053209811 0.0082782386
0.01126523 -0.0051480224 0.0082192058
-0.011669613 -0.0042502447 0.0082298741
-0.012124856 -0.0026254617 0.0082645565
0.012286209 -0.0015554515 0.0082146106
0.012443397 0.00041181088 0.0082410295
0.012328733 0.001246058 0.0082628131
-0.011888135 0.0034703279 0.0082402788
0.011567279 0.0044526355 0.0082421629
-0.0089802332 0.0085574454 0.0082089007
0.0088320365 0.0087665496 0.0082054222
0.0082111424 0.0093618752 0.008271941
-0.0044552735 0.011638733 0.0082645565
0.0039976174 0.011721652 0.0082019744
-0.0028816718 0.012049302 0.0082893241
-0.0011724955 -0.012404473 0.0083739329
0.0021606497 -0.012264718 0.0083120912
-0.0038012057 -0.011858221 0.0083858036
-0.0036010486 -0.011899814 0.0083789164
0.0056830426 -0.01112265 0.0083487146
-0.0080937119 -0.0093853977 0.0083632376
0.0085502844 -0.0091128694 0.0083216187
-0.0098336469 -0.0076628933 0.0083470885
-0.01098979 -0.0057616951 0.0083697373
-0.011367292 -0.0051409211 0.0083262138
-0.011432287 -0.0050340407 0.0083881011
0.011883248 -0.0037252048 0.0083029298
-0.012070314 -0.002820123 0.0083719566
0.012134852 -0.002656643 0.0083159916
-0.012383575 -0.0014241139 0.0083409948
0.012350241 0.0010895724 0.0083492007
0.012323158 0.0012866155 0.0083532892
0.011393745 0.0048521492 0.0083910124
-0.0094269803 0.008140211 0.0083087254
-0.0080333203 0.0094418004 0.0083307913
0.0078215329 0.0096368911 0.0083701564
-0.0055155018 0.011089368 0.0083769243
-0.0037162153 0.011875883 0.0083864368
-0.0017197666 0.01229075 0.0083124926
0.0013153246 -0.012322539 0.0084811412
-0.0051376084 -0.011285176 0.0084700007
0.0056288508 -0.011141911 0.0084207021
-0.0063631837 -0.010650134 0.0084732827
-0.0084729521 -0.0090312129 0.008493986
0.0085924612 -0.0090610273 0.0084225079
-0.0099118464 -0.0075343004 0.00846803
-0.010646034 -0.00632698 0.0084715486
0.011591028 -0.004397959 0.0084856981
-0.01226818 -0.002113929 0.0084110796
-0.012383575 0.0016635462 0.008498692
-0.012118744 0.0026472737 0.0084261289
0.012064536 0.0031682299 0.0084970891
-0.011245815 0.0053406814 0.0084748678
-0.0094851255 0.0080859074 0.0084306588
-0.0086829308 0.0088351062 0.0084533282
0.0064191055 0.010626833 0.008446943
-0.0050416635 0.01133489 0.0084571345
-0.0023078714 0.01216854 0.0084249601
0.00014210175 0.01240279 0.0084309727
-0.0026142816 -0.012104867 0.0085800849
0.005248914 -0.01127694 0.0085596675
-0.0054280981 -0.011134655 0.0085101966
0.0089227837 -0.0086550061 0.0085993744
0.011197157 -0.0053047412 0.0085551189
0.011494155 -0.0046209833 0.0085369246
-0.011575873 -0.0045848107 0.0085121766
-0.011646369 -0.0043331999 0.0085649118
-0.012258224 -0.0021494627 0.0085542686
0.012213873 -0.002081723 0.0085892081
-0.012383575 -0.00082581624 0.0085462984
-0.012383575 0.00011530481 0.008594526
0.01240491 0.00069181994 0.0085744746
-0.01172293 0.0040599541 0.0085519487
-0.011085098 0.0056049689 0.0085085686
-0.0073054703 0.010121563 0.0085079418
-0.0070729405 0.010282367 0.0085108839
-0.0036040372 0.011899194 0.0085009802
0.0024351417 0.012245943 0.008579704
-0.0005290244 -0.012448696 0.0086864065
0.0027907172 -0.012150584 0.0086980471
0.0049465694 -0.011384394 0.0086221276
-0.0060315542 -0.010821971 0.0086438498
-0.0065081259 -0.010575032 0.0086659892
-0.012059821 -0.0028575761 0.0086356727
0.012493649 -4.6197092e-05 0.0086482102
0.012325974 0.0012661294 0.0086255306
0.011543328 0.0045077782 0.0086005628
-0.010001661 0.0073866062 0.0086519821
-0.0088388361 0.0086895004 0.0086329132
0.0077863531 0.0096617229 0.008612928
0.0071639214 0.010101084 0.0086822063
-0.0069564721 0.010342717 0.0086066369
-0.0039895475 0.011819083 0.0086101154
0.0034648415 0.011911 0.0086618112
-0.00089449959 -0.012462242 0.0087188333
-0.0040588533 -0.011804681 0.0087831803
0.00535616 -0.011238825 0.0087376563
0.0056554177 -0.011132468 0.0087206895
-0.0057567856 -0.010964344 0.0087449551
-0.011177341 -0.0054532811 0.0087761246
0.011202704 -0.0052919732 0.0087014521
-0.011572271 0.0045976648 0.0087878853
0.007619082 0.0097797969 0.0087410472
0.0064302417 0.010618972 0.0087918835
0.0057441001 0.011100952 0.0087213982
-0.0045526186 0.011588293 0.0087502822
0.0036330493 0.011851219 0.0087421769
-0.0026568985 0.012096012 0.0087448731
-0.0010146089 0.012437282 0.0087104198
-5.9271231e-05 -0.012416564 0.008827691
-0.0015996167 -0.012315717 0.0088158576
0.0072750337 -0.010022652 0.0088415192
0.010083833 -0.0072278846 0.0088426471
0.012064759 -0.0031666174 0.0088657923
-0.012259994 -0.0021431511 0.0088326531
0.012202276 -0.002166101 0.0088358819
-0.012383575 0.0011831699 0.008835014
0.011846902 0.0038088791 0.0088480692
0.011089172 0.0055533489 0.0088572977
0.010613683 0.0065766131 0.0088999486
-0.007652537 0.0097974259 0.0088941185
-0.0018922567 0.012254905 0.0088988552
0.0017432122 0.012293272 0.0088715311
0.0010174919 0.012342913 0.0088042999
0.0014393302 0.012314059 0.0088167088
-0.00080445351 0.012467536 0.0088155828
-0.00077401457 -0.012465455 0.0089672115
0.0032471847 -0.011988355 0.0089753633
0.0043457677 -0.011597918 0.0089102089
-0.0083841607 -0.0091141379 0.0089296447
-0.0085311849 -0.0089768255 0.0089819022
-0.009561995 -0.0080141155 0.0089225657
-0.010876399 -0.0059481608 0.0089025106
0.012405341 -0.00068868464 0.008939445
0.01236969 0.00094806618 0.0089420583
-0.012370318 0.0017493912 0.008915659
-0.012136094 0.0025853503 0.0089206705
0.011884079 0.0037232891 0.0089406502
0.011611622 0.0043505486 0.008950579
-0.0096143987 0.0079651754 0.0089960918
-0.0021252371 0.012206491 0.0089397933
0.00024932928 0.012395456 0.008939445
-0.0001449656 -0.012422426 0.0090466235
-0.0071698739 -0.010232141 0.009027306
-0.0093606599 -0.0082021514 0.0090535982
-0.0095648421 -0.0080114584 0.0090368614
-0.01145084 -0.0050035315 0.0090967156
-0.012323434 -0.0019167332 0.0090416409
-0.012383575 -0.00094202964 0.0090284906
-0.012383575 0.0012427984 0.0090512065
-0.011206429 0.0054054465 0.0090310322
-0.011135069 0.005522795 0.0090560038
0.0032073981 0.012002495 0.0090830112
-0.0028991932 -0.012045662 0.0091786468
0.0031491492 -0.012023197 0.0091510406
-0.0047728783 -0.011474163 0.0091024889
-0.0077275904 -0.0097273309 0.0091425972
0.0078379763 -0.009625284 0.009195867
0.011005322 -0.0057463907 0.0091404114
0.012448725 -0.00037304781 0.009117689
-0.0083318939 0.0091629513 0.0091109732
0.0076502068 0.0097578261 0.009153449
0.0069983001 0.010217993 0.0091378093
0.0058357073 0.01103864 0.009115451
0.0052595823 0.011273149 0.0091023939
-0.0016319595 0.012308995 0.0091159167
-4.8314556e-05 0.012415815 0.0091612665
0.0016410819 -0.012300257 0.0092270868
0.0023254517 -0.012253446 0.0092950063
-0.006635597 -0.010508982 0.0092558255
-0.0078618564 -0.0096019357 0.0092363069
-0.010340098 -0.0068300683 0.009221266
0.011771725 -0.003981953 0.0092348866
-0.012383575 -0.0016850864 0.0092411656
0.0096614482 0.0077470653 0.0092270868
0.0085297059 0.0091370074 0.0092165936
0.0060920673 0.010857681 0.0092137093
-0.0056279958 0.011031077 0.0092758145
0.0044713207 0.011553297 0.0092593925
-0.0038356311 0.011851068 0.0092856269
0.00057785405 0.012372984 0.0092181712
0.00016205397 0.012401426 0.0092036752
-0.0022941548 -0.01217139 0.0093457727
0.0029376149 -0.012098376 0.00936234
0.0062592961 -0.010739639 0.0093236063
-0.0096013919 -0.0079773236 0.0093945432
-0.0098312944 -0.0076667606 0.0093703512
-0.0099279797 -0.0075077685 0.0093118958
-0.011755539 -0.0039435704 0.0093938364
0.012035783 -0.0033740303 0.0093416916
0.012298815 -0.0014637354 0.0093672276
-0.012383575 -0.00096737198 0.0093036341
0.012172868 0.0023800586 0.0093027912
-0.011730827 0.0040317648 0.0093994327
0.011395483 0.004848151 0.0093328021
-0.011415865 0.0050610439 0.0093615204
0.0096957553 0.0077048969 0.0093960799
0.0066914358 0.010434601 0.0093439119
-0.0057368185 0.010974689 0.0093278158
-0.0015276684 0.012330668 0.0093701184
-0.0035633338 -0.011907652 0.0094263544
0.010085097 -0.007226333 0.0094869025
0.012455473 0.00032395739 0.0094012078
-0.012383575 0.00052708708 0.0094028376
-0.012286717 0.0020477741 0.0094303172
-0.012128783 0.0026114469 0.0094766365
-0.011993549 0.0030941037 0.0094024427
-0.01156023 0.004640643 0.0094877109
0.010725505 0.0063905949 0.0094115995
0.0059625627 0.010949096 0.0094127096
-0.0048813801 0.011417942 0.0094680488
-0.0031332972 0.011997014 0.009407009
0.00012068782 -0.012404256 0.0095502026
0.0022649984 -0.01225758 0.0095366426
-0.0038476847 -0.011848563 0.0095814411
-0.0043940214 -0.011670471 0.0095211565
0.0041274023 -0.011675525 0.0095476843
0.0093830153 -0.0080893049 0.0095311152
0.011554434 -0.0044822088 0.0095101194
0.01185526 -0.0037896393 0.0095554106
-0.012212624 -0.0023122125 0.0095221754
-0.012383575 0.0014922271 0.0095962929
-0.011319565 0.0052194046 0.0095918095
-0.010765721 0.0061301617 0.0095264828
0.0091835689 0.0083344588 0.0095675513
-0.006480054 0.010589577 0.0095162047
0.0038033645 0.011790689 0.0095818974
0.00050369243 -0.012378057 0.0096942298
0.0054973201 -0.011188657 0.0096667306
-0.0057301614 -0.01097814 0.0096433759
0.012390674 -0.00079540204 0.0096876323
0.012499509 -3.5685553e-06 0.0096733319
-0.012383575 0.0011176165 0.0096334852
-0.011969155 0.0031811662 0.0096937697
0.01204798 0.0032886881 0.0096953288
0.010406599 0.0068311524 0.0096847713
0.0099342689 0.0074117249 0.0096304007
-0.0097335484 0.0078274971 0.0096235685
-0.009409341 0.0081566852 0.0096969213
0.0084487256 0.0091941711 0.0096079316
-0.0045232289 0.011603521 0.0096757449
-0.0024508045 0.012138838 0.0096502881
-0.00022902733 -0.012428177 0.0097513413
0.00016704755 -0.012401083 0.0097153131
0.0020851369 -0.012269883 0.009799622
-0.0082196156 -0.0092678126 0.0097963484
0.0087714083 -0.0088410731 0.0097360443
0.0095232241 -0.0079169665 0.009709619
0.010307781 -0.0069526155 0.0097041242
-0.010487155 -0.0065882439 0.0097227432
0.012369946 0.00094621431 0.009781478
0.012351719 0.0010788251 0.0097195096
-0.012345588 0.0018376606 0.0097765354
0.012136381 0.0026455247 0.0097733038
0.012092471 0.0029649911 0.009765625
-0.011803974 0.003770703 0.0097113065
-0.011404423 0.0050798617 0.0097703319
-0.01121074 0.0053983605 0.009782508
-0.01110686 0.0055691842 0.0097104684
0.010710155 0.0064259358 0.0097787874
-0.010350877 0.0068123434 0.0097189397
-0.0094108712 0.0081552574 0.009755074
-0.0091557708 0.0083935037 0.0097135892
-0.0059622331 0.010857888 0.0097853001
0.0039875442 0.011725231 0.0097601376
-0.00077268807 -0.012465364 0.0098862331
0.00072210236 -0.012363117 0.0098083913
-0.0038187709 -0.011854571 0.0098837726
0.0070757666 -0.010163311 0.0098193483
0.012098437 -0.0029215864 0.0098381452
-0.012194853 -0.0023756369 0.0098535176
0.0088738101 0.0087152021 0.0098215388
-0.0083731376 0.0091244327 0.0098527763
0.0054349373 0.011210827 0.0098003149
0.0047814334 0.011443083 0.0098287035
0.0027668367 0.01215907 0.0098368721
0.00072291307 0.012363061 0.0098872082
0.0012684639 0.012325745 0.0098620504
-0.0023552773 -0.012158689 0.0099437442
0.0035083052 -0.011895553 0.0099400226
-0.0071679479 -0.010233139 0.0099216737
-0.0083702272 -0.0091271503 0.0099181337
-0.011960667 -0.0032114615 0.0099967383
0.012104848 -0.0028749406 0.0099479221
0.012289937 -0.0015283194 0.009989839
-0.012383575 0.0010413229 0.0099799745
-0.012097798 0.0027220324 0.0099778473
0.011153667 0.0054048654 0.0099374698
-0.0097321626 0.0078297779 0.0099799745
0.0027056062 0.012180832 0.0099723935
0.0019540864 0.012278847 0.0099944677
0.0027184612 -0.012176263 0.010039919
0.0087352023 -0.0088855755 0.010069152
0.012264393 -0.0017141594 0.010013819
0.012329923 -0.0012374008 0.010079123
0.012450623 -0.00035923743 0.010066073
-0.012383575 -4.4684071e-05 0.010009667
-0.012338931 0.0018614186 0.010053103
0.012192197 0.0022394294 0.010031243
-0.010392129 0.0067445086 0.010085737
-0.0097480938 0.0078035779 0.010089581
-0.0078780223 0.0095868381 0.010099818
-0.0076541402 0.0097959293 0.010099818
0.0032524113 0.011986498 0.010041043
-0.00011361809 -0.012420282 0.010151235
0.006441792 -0.010610819 0.010110537
0.012193624 -0.0022290554 0.010180112
0.012257421 -0.0017648906 0.010162216
-0.011780427 0.0038547439 0.010153009
-0.0096175112 0.0079622678 0.01014651
0.0052221036 0.011286469 0.010148373
0.0051286411 0.011319686 0.010185216
-0.0036071609 0.011898545 0.01019882
-0.0032717744 0.011968239 0.010128386
-0.0016674455 0.012301622 0.010110063
0.0044661472 -0.011555136 0.010220211
0.0063016037 -0.010709775 0.010218792
0.011278104 -0.005118385 0.010241866
-0.012238286 -0.0022206237 0.010233548
0.012405604 0.00068677508 0.010270815
-0.012383575 0.0016640578 0.010205157
-0.011746733 0.003975004 0.010267185
0.011348924 0.004955342 0.010216959
-0.0099446308 0.0074803857 0.010207737
0.0095918849 0.0078325709 0.010249441
0.0092736594 0.0082237218 0.010245115
0.0024783209 0.012242989 0.010270429
-0.0016352355 0.012308314 0.010267168
0.00060582865 0.012371072 0.010208294
-0.0043045157 -0.011716848 0.010351027
-0.0081603974 -0.0093231183 0.01034431
-0.011537462 -0.0047219004 0.010387589
0.01219853 -0.0021933508 0.010330513
-0.011726881 0.0040458511 0.010308657
0.011284089 0.005104606 0.010358576
-0.0092502404 0.0083052758 0.010311889
-0.0087379264 0.0087837428 0.010340035
0.0071469396 0.010113072 0.010390926
-0.0063939895 0.010634172 0.010385791
-0.0045520635 0.011588581 0.010355469
-0.0043673548 0.011684289 0.010394593
0.002739029 0.012168953 0.010357495
0.00073108147 0.012362503 0.010307834
-0.0019445166 -0.012244046 0.010493721
-0.0025509351 -0.01211803 0.010446141
-0.010617527 -0.0063738558 0.010456452
-0.011559364 -0.004643728 0.010417483
-0.011944738 -0.0032683117 0.010409438
-0.012383576 0.0007848948 0.010436445
0.012255497 0.0017788869 0.010438323
-0.012056181 0.0028705662 0.01041103
-0.011508863 0.0048239701 0.010402431
0.010998332 0.0057624849 0.01042648
-0.010245288 0.0069859773 0.010457327
-0.0071489993 0.010242958 0.010491759
0.0068137241 0.010348281 0.010441549
0.0053913938 0.011226303 0.010438804
-0.0021837123 0.01219434 0.010488326
0.00035417354 0.012388283 0.01040709
0.0010348351 0.012341726 0.010456614
-0.0002701164 -0.012430987 0.010506572
-0.0044986447 -0.01161626 0.010545299
-0.0049111107 -0.011402537 0.010547899
0.009635549 -0.0077788997 0.010588702
0.012151247 -0.0025373597 0.010515629
0.012259992 -0.0017461878 0.010535066
-0.012302478 0.0019915197 0.010599938
-0.010884007 0.0059356499 0.010559814
-0.010411194 0.0067131561 0.010594204
-0.0059854127 0.010845879 0.010515735
-0.003653652 0.011888884 0.010514051
0.0035344656 0.011886256 0.010526478
0.0036592889 0.011841892 0.010550093
0.00066169142 0.012367249 0.010575836
-0.00051846937 0.012447975 0.010573693
0.0034256771 -0.011924919 0.010622406
-0.0049046334 -0.011405893 0.010668176
-0.0064787008 -0.010590278 0.010605057
-0.0073815919 -0.010050472 0.010684796
-0.010180476 -0.0070925551 0.010664018
0.010855199 -0.0060920101 0.010634131
-0.011795731 -0.0038001225 0.010675784
-0.012006167 0.0030490654 0.010667771
-0.010529943 0.0065178815 0.010687944
0.0097708553 0.0076125856 0.01069573
-0.0091869449 0.0083643887 0.010605915
0.0053977259 0.011224052 0.010614
-0.0050740764 0.011318095 0.010637249
0.0011103241 -0.012336561 0.010701071
0.0028839391 -0.012117453 0.010706686
-0.0059202434 -0.010879647 0.010751215
-0.0085718362 -0.0089388601 0.010700291
0.0094436184 -0.008014814 0.010793913
0.011379874 -0.0048840861 0.01073952
-0.011752643 -0.003953909 0.010751674
-0.012248766 -0.0021832197 0.010751553
0.012289063 -0.0015346756 0.010707483
-0.012383575 -0.001039943 0.010728213
-0.012383575 0.0013987937 0.01074085
-0.011645166 0.0043375008 0.010783719
-0.010902192 0.0059057446 0.010710337
-0.010049947 0.0073072026 0.010716792
-0.009953293 0.007466143 0.010781035
-0.0088428929 0.0086857108 0.01079096
0.0044773072 0.01155117 0.010708552
0.0038974658 0.011757245 0.01073952
0.0032021469 0.012004361 0.010768328
0.0033058119 -0.011967518 0.010896765
0.0046915505 -0.011475028 0.010807764
0.0059475005 -0.010959728 0.010803597
0.010680864 -0.00649337 0.01087529
0.012013201 -0.0034260233 0.010896076
-0.012170861 -0.0024612709 0.010850959
-0.012383575 -0.000854877 0.010820916
-0.012383575 8.1624661e-05 0.010888739
0.012280486 0.0015970853 0.010863118
-0.011647844 0.0043279426 0.010850959
0.011517488 0.0045672655 0.010837581
0.010975678 0.0058146389 0.01083013
0.010731833 0.0063760262 0.010859926
-0.0085242093 0.008983342 0.010898422
0.0071043707 0.01014312 0.010898203
0.0058684861 0.011015503 0.010807764
-0.004797298 0.01146151 0.010875245
-0.0045280093 0.011601045 0.010877948
-0.002125632 0.01220641 0.010812393
-0.0069771353 -0.01033201 0.010942926
-0.011064108 -0.0056394851 0.010929365
0.011547937 -0.0044971672 0.010922637
-0.011663932 -0.0042705201 0.010979939
0.012411581 -0.00064329238 0.010942806
0.012395263 0.0007620111 0.010942201
-0.011121301 0.0055454364 0.01091739
0.0088260109 0.0087739555 0.010995835
-0.008118242 0.009362489 0.010999351
0.0071661514 0.01009951 0.010966148
-0.0069831247 0.010328906 0.010971013
-0.0029868374 0.01202745 0.010992658
-0.00037655429 0.012438267 0.010983114
0.00045728325 -0.012381231 0.011051957
0.0011034413 -0.012337033 0.011062537
0.0016121228 -0.012302238 0.011048782
0.0077417493 -0.0096932091 0.011012785
0.010338129 -0.0069153132 0.011037141
0.011144381 -0.0054262471 0.011070999
0.012217419 -0.00205593 0.011025493
-0.011683069 0.0042022206 0.011057367
-0.01093892 0.0058453493 0.011061817
0.0095742736 0.0078542177 0.011015963
-0.0053786035 0.011160301 0.011018384
0.0051038684 0.01132849 0.011083269
0.0037192886 -0.01182057 0.011179763
0.0053175855 -0.011252535 0.011146005
-0.010085246 -0.007249156 0.011125444
-0.010204373 -0.0070532579 0.011102307
0.01116698 -0.0053742155 0.011134394
-0.011665255 -0.0042657983 0.0111381
0.012460451 0.00028773845 0.011156766
0.011852422 0.0037961705 0.011165795
0.010765644 0.0062981867 0.011187141
0.0086828228 0.0089499559 0.011112218
-0.0063054701 0.010680038 0.011152579
-0.0058600674 0.010910828 0.011114165
-0.0053949049 0.011151855 0.011164447
0.0055199554 0.011180612 0.011153399
0.0041392851 0.011671303 0.011162888
0.0021805491 -0.012263358 0.01125139
0.0044215918 -0.011570971 0.011247178
0.0058708675 -0.011013821 0.01126518
-0.0061724507 -0.010748964 0.011297125
0.0070927897 -0.010151294 0.011208218
0.0075713973 -0.0098134559 0.011233496
-0.010918196 -0.0058794273 0.01125733
0.011464018 -0.0046903654 0.01126191
-0.011730889 -0.0040315501 0.011297691
0.011894281 -0.0036998023 0.011230337
0.012397144 -0.00074832054 0.011238758
0.012497404 1.8887098e-05 0.01125668
-0.012383005 0.0017041166 0.011295119
-0.012251262 0.0021743169 0.011207364
0.0065177693 0.010557189 0.011218753
0.0039144424 0.011751212 0.011215594
-0.003809866 0.011856422 0.011226887
-0.0036742333 0.011884606 0.011288995
0.0026106872 0.012214567 0.011209272
-0.0013444268 -0.012368745 0.011388618
0.00029481095 -0.012392345 0.011385833
-0.0024048418 -0.01214839 0.011335211
0.0076969089 -0.0097248601 0.011309218
-0.010049004 -0.0073087537 0.011376217
-0.011374041 -0.0051298216 0.011398057
0.012351522 -0.0010802582 0.011374298
-0.012383575 0.0016195262 0.011392449
0.012035824 0.003373937 0.011309411
0.010425773 0.0068075848 0.011322768
-0.0096066128 0.0079724463 0.011351157
-0.0051778047 -0.011264347 0.011484061
-0.0059732255 -0.010852194 0.011463631
0.0072558727 -0.010036177 0.011416223
-0.0096641248 -0.0079187341 0.011473991
0.010062287 -0.0072543696 0.011400509
-0.012383575 -0.0013805071 0.011486895
0.012375921 -0.00090273796 0.011401554
0.012460317 -0.00028871454 0.011450775
0.01246673 0.00024205615 0.011459937
-0.01207665 0.0027975128 0.011469138
-0.011492482 0.0048824302 0.011451446
-0.007667162 0.0097837681 0.011473991
0.0072044614 0.010072468 0.011405747
0.0071386546 0.010118919 0.011417273
0.0024295705 0.012246324 0.011454762
-0.0024400055 -0.012141082 0.011547083
0.0067285248 -0.01040842 0.011596997
0.0084230956 -0.0092122611 0.011569887
-0.0093560517 -0.008206455 0.011507876
0.0092701018 -0.0082280952 0.011520825
-0.0095126899 -0.0080601647 0.011573064
-0.012238769 -0.0022189019 0.01150505
-0.012383575 -0.00034039412 0.011510074
0.012347572 0.0011089958 0.011582401
-0.012383575 0.0016575104 0.011507876
0.011385608 0.0048708841 0.011593868
0.011409065 0.0048168823 0.011559453
-0.0085919444 0.008920081 0.011506096
0.0077969944 0.0096542127 0.011562721
-0.0072308755 0.010191232 0.011533349
-0.0065967436 0.010529112 0.011505838
-0.002134166 -0.012204636 0.011696257
0.008271046 -0.0093195904 0.011695888
-0.0082736835 -0.0092173163 0.011663637
0.010040768 -0.0072808191 0.011695888
-0.011032257 -0.0056918622 0.011655711
0.011339234 -0.0049776463 0.01168861
0.011888782 -0.0037124609 0.011694849
0.012222158 -0.0020214538 0.011674049
-0.012009213 0.0030382003 0.011685837
-0.011964672 0.0031971664 0.011648731
-0.010692248 0.0062509826 0.011603458
0.010379011 0.0068650628 0.011623703
-0.0098426845 0.0076480308 0.01163857
0.0065253563 0.010551833 0.011691727
-0.0061524166 0.010759344 0.011644394
-0.0053894697 0.011154671 0.011688121
-0.0049396288 0.01138776 0.011681461
0.004059759 0.011699566 0.011696924
-0.0027789297 0.012070652 0.011684522
-0.0019108517 0.012251042 0.011614159
0.0022753393 0.012256873 0.011642234
0.00042308384 0.012383571 0.011663648
-0.0012850461 -0.012381086 0.011751492
-0.0052661332 -0.011218579 0.011792054
0.0070791109 -0.010160949 0.011731212
0.0071868952 -0.010084867 0.011719789
-0.0081147458 -0.0093657542 0.011788998
0.0088138394 -0.0087889154 0.011771852
-0.010557744 -0.0064721666 0.01174555
-0.011007019 -0.0057333652 0.01177055
0.011091012 -0.0055491133 0.011771697
0.011137863 -0.0054412512 0.011735368
-0.012383575 0.00051612104 0.011772553
-0.012383576 0.0012843098 0.011790751
-0.012263238 0.0021315664 0.011738708
0.012156975 0.0024956889 0.01177377
-0.011578267 0.0045762612 0.011784975
0.0095915366 0.0078329975 0.011723943
0.0078379391 0.0096253101 0.011716076
0.0027643712 0.012159947 0.011714595
-0.00038029061 0.012438524 0.011730175
-0.0002227985 -0.01242775 0.011894008
0.0011526495 -0.012333668 0.011850451
-0.002408531 -0.012147622 0.011833072
0.0038890946 -0.011760221 0.011826637
0.0051799798 -0.01130144 0.0118846
-0.006522201 -0.010567738 0.011839936
0.0065148426 -0.010559253 0.011823528
0.0079774382 -0.0095268413 0.011810057
-0.010312211 -0.0068759276 0.011838333
0.010817915 -0.0061778459 0.0118315
0.011854154 -0.0037921825 0.011854594
-0.01214224 -0.0025634207 0.011822555
0.012160049 0.0024733301 0.011855628
0.012148311 0.0025587203 0.011809024
