# .PCD v0.7 - Point Cloud Data file format
VERSION 0.7
FIELDS x y z
SIZE 4 4 4
TYPE F F F
COUNT 1 1 1
WIDTH 1224
HEIGHT 1
VIEWPOINT 0 0 0 1 0 0 0
POINTS 1224
DATA ascii
0.011862051 0.020972423 -0.00053177972
-0.0020622462 0.021009322 -0.00056879292
-0.0017644996 0.021021666 -0.00058117462
0.0043724366 0.021038184 -0.00059774425
0.0074602687 0.021002084 -0.00056153431
0.011207817 0.021031689 -0.00059122941
-0.012001405 -0.02091286 -0.0004720336
-0.0053152405 -0.020911539 -0.00047070804
-0.0029772054 -0.020917447 -0.00047663559
-0.00015769619 -0.020920062 -0.00047925848
0.0063141165 -0.020930966 -0.00049019681
0.0099401278 -0.020850942 -0.00040992393
0.010440512 -0.020858811 -0.00041781811
0.012379248 -0.020854093 -0.0004130856
-0.012499999 -0.013309333 -0.00047068472
0.012499999 -0.0098277554 -0.00042145606
-0.012499999 -0.006556137 -0.00044270372
-0.012499999 -0.0060266568 -0.00041534385
-0.012499999 -0.0032774108 -0.00047755498
0.012499999 0.00046837702 -0.00042780308
0.012499999 0.0018750164 -0.00044297671
0.012499999 0.0028633196 -0.00048053631
-0.012499999 0.0064940047 -0.00041657034
0.012499999 0.0089528393 -0.00047322776
-0.012499999 0.010282381 -0.00043356768
-0.012499999 0.010973338 -0.00042026193
-0.0125 0.016549099 -0.00046311022
0.012499999 0.017283624 -0.0004621617
-0.012499999 0.018240992 -0.00043531047
-0.012499999 0.019193944 -0.0004503766
-0.0071660373 0.020885158 -0.00044424817
-0.0037473706 0.020858204 -0.00041720929
-0.0016887257 0.02084426 -0.00040322178
-0.00069558097 0.020863349 -0.00042236905
0.0099963555 0.020887382 -0.00044647811
-0.002618972 0.020920493 -0.00047968983
0.011706715 0.020908842 -0.00046800403
-0.0019920031 -0.020840073 -0.0003990223
0.0077394722 -0.020811666 -0.00037052511
0.010370805 -0.020832436 -0.00039136325
0.012158266 -0.020815896 -0.00037476997
0.012364305 -0.020836249 -0.00039518555
-0.0063817799 -0.020793192 -0.00035199625
-0.0037696599 -0.020798091 -0.00035690982
-0.0036265925 -0.02076163 -0.00032033608
0.004718015 -0.020788305 -0.000347094
0.0051335925 -0.020757917 -0.00031661347
0.0062280139 -0.020752929 -0.00031160872
0.012099296 -0.020783309 -0.00034208404
-0.012499999 -0.020579554 -0.00037644737
0.012499999 -0.018898102 -0.00034558051
-0.012499999 -0.016513851 -0.00034038443
0.012499999 -0.016181817 -0.00030439137
0.012499999 -0.014312466 -0.00036913413
-0.012499999 -0.014214643 -0.00030289264
-0.012499999 -0.0098215071 -0.00031041587
-0.012499999 -0.0092924964 -0.00036757439
0.012499999 -0.0077634109 -0.0003454281
-0.012499999 -0.0076258723 -0.00030083978
-0.012499999 -0.0066410936 -0.00033069041
-0.012499999 -0.0061999718 -0.0003580784
0.012499999 -0.0057410882 -0.00032136508
-0.012499999 -0.0044844435 -0.00035053375
0.012499999 -0.0012952955 -0.00033891201
-0.012499999 0.002095724 -0.00032367767
-0.012499999 0.004478069 -0.00038805275
0.012499999 0.0051021618 -0.00036764471
0.012499999 0.0095142508 -0.00036915741
-0.012499999 0.010024451 -0.00038714003
-0.012499999 0.01382968 -0.00030406957
-0.012499999 0.017433185 -0.00036898279
-0.012499999 0.017942358 -0.00034113179
-0.012499999 0.020034235 -0.00035450055
-0.012499999 0.020300485 -0.00032539581
-0.006359037 0.020781109 -0.00033987637
-0.0026227385 0.020753991 -0.0003126747
-0.012106273 0.020834198 -0.00039312858
-0.0047705285 0.020824907 -0.00038381014
-0.00044030859 0.02082441 -0.00038331072
0.0067151496 0.020832751 -0.00039167746
-0.011549622 -0.020711277 -0.00026982909
-0.00065063871 -0.020731956 -0.00029057194
0.0038509411 -0.020718083 -0.00027665583
0.0051543284 -0.020718114 -0.0002766861
0.0096735917 -0.020714421 -0.00027298206
0.0097374897 -0.020735182 -0.00029380637
-0.0095901787 -0.020671953 -0.00023038313
0.0032716123 -0.020654649 -0.00021302559
0.0059545515 -0.020676035 -0.00023447952
0.010186538 -0.020652818 -0.00021118789
0.012499999 -0.01712388 -0.00028605061
-0.012499999 -0.015758857 -0.0002694976
-0.012499999 -0.010457641 -0.00025009923
-0.012499999 -0.0064620553 -0.00029139954
0.012499999 -0.003209518 -0.00021816004
0.012499999 -0.00088493619 -0.0002508061
0.012499999 0.00054955925 -0.00026078726
-0.012499999 0.0021025317 -0.00025857263
0.012499999 0.00302081 -0.00029892375
-0.012499999 0.0033722154 -0.00029598048
-0.012499999 0.0047112987 -0.00020012073
0.012499999 0.0084418273 -0.00024424924
0.012499999 0.0091818441 -0.00026632097
-0.012499999 0.0093368348 -0.00023015263
0.012499999 0.011446734 -0.00028666185
0.0125 0.014180752 -0.00024507521
-0.012499999 0.016311426 -0.00027453064
-0.012499999 0.016668474 -0.00028308254
0.012499999 0.01828333 -0.00028471809
-0.010599779 0.020693287 -0.00025178352
-0.0097801834 0.020647373 -0.00020572876
-0.0091550387 0.020667369 -0.00022578514
-0.006901423 0.020687912 -0.00024639087
-0.0055372044 0.020689648 -0.00024813399
-0.0050456678 0.020663047 -0.00022144934
-0.010372002 0.020703381 -0.00026190749
-0.0037378673 0.020725556 -0.00028415106
0.0007624689 0.020733258 -0.00029187667
0.0088585783 0.020700768 -0.00025928608
0.0032468443 -0.020601634 -0.00015984803
-0.0048778746 -0.02055433 -0.00011239616
0.0020366441 -0.020597015 -0.00015521237
0.0054254793 -0.020559624 -0.00011770739
0.012136472 -0.020586887 -0.00014505464
0.012499999 -0.013615405 -0.00014831405
-0.012499999 -0.013593403 -0.00018760544
0.012499999 -0.012183178 -0.00014814059
-0.012499999 -0.011297988 -0.00013200426
-0.012499999 -0.0072298804 -0.00017644651
0.012499999 -0.0027683533 -0.00013033266
0.012499999 -0.0026070336 -0.00012285844
0.012499999 9.1317284e-05 -0.0001914069
-0.012499999 0.00055567455 -0.00017400191
0.012499999 0.0018396096 -0.0001104715
-0.012499999 0.0040183272 -0.00013199484
0.012499999 0.0041253241 -0.0001268349
-0.012499999 0.0064189532 -0.00012119749
0.012499999 0.012452265 -0.00015201577
0.012499999 0.012968685 -0.00011819269
-0.012499999 0.018682742 -0.00012448918
-0.00718045 0.020583397 -0.00014155246
-0.0031549453 0.020547261 -0.000105307
0.011059167 0.02055335 -0.00011141335
-0.01232736 0.02061349 -0.00017173875
-0.011492454 0.020609401 -0.0001676387
-0.0067816079 0.020622453 -0.00018073015
0.012273957 0.020606933 -0.00016516274
-0.0060598268 -0.020522892 -8.0862083e-05
-0.0019141417 -0.020528752 -8.6740991e-05
-0.00085714739 -0.020502621 -6.0527505e-05
0.0037489976 -0.020520356 -7.8317302e-05
0.0040393379 -0.020500241 -5.8140038e-05
-0.010001237 -0.020442756 -4.7693356e-07
-0.0096569955 -0.020471416 -2.9225723e-05
-0.0078561176 -0.020474708 -3.2530428e-05
-0.0029272148 -0.020472389 -3.0203453e-05
0.0002154801 -0.020488659 -4.6523302e-05
0.0015042364 -0.020460565 -1.8339502e-05
0.0067706481 -0.020460971 -1.8749124e-05
-0.012499999 -0.019516192 -6.2783482e-05
-0.012499999 -0.018362883 -3.8811006e-05
0.012499999 -0.017645769 -6.0556456e-05
-0.012499999 -0.017513761 -1.2842705e-05
0.012499999 -0.016811507 -3.6128913e-05
-0.012499999 -0.014764877 -9.6858595e-05
-0.012499999 -0.013309114 -5.1675597e-06
-0.012499999 -0.011460738 -7.9010148e-05
-0.012499999 -0.010871535 -4.0992862e-05
0.012499999 -0.010121895 -4.8942864e-05
-0.012499999 -0.0095486054 -8.5119391e-05
-0.012499999 -0.0063612428 -7.9121673e-05
0.012499999 -0.0042955563 -5.420926e-05
0.012499999 0.0023671011 -6.261922e-05
0.012499999 0.0030542803 -7.9070393e-05
-0.012499999 0.0047618961 -3.654341e-05
-0.012499999 0.0051928507 -6.3966261e-05
-0.012499999 0.0059837122 -3.660185e-05
-0.012499999 0.0067065 -2.8034308e-05
-0.012499999 0.0071761901 -3.6044396e-05
0.012499999 0.010082959 -4.3885942e-05
0.012499999 0.010161058 -6.9443697e-05
0.012499999 0.015929895 -1.4347752e-06
-0.0076537658 0.02048653 -4.4387751e-05
-0.0025342843 0.020498076 -5.5969958e-05
0.0018173018 0.020451546 -9.2946939e-06
0.0073052845 0.020450329 -8.0757891e-06
0.011784184 0.020457234 -1.500122e-05
-0.011543278 0.020509413 -6.7340545e-05
-0.0053287973 0.020525657 -8.3634295e-05
0.0004693002 0.020510579 -6.8509304e-05
0.0050994102 0.020513108 -7.1046685e-05
0.010833451 0.02051699 -7.494085e-05
-0.0024602236 -0.02040495 3.7445214e-05
0.0058924877 -0.02042011 2.2237844e-05
-0.0096621588 -0.020389721 5.2721582e-05
-0.0031542685 -0.020370463 7.2038791e-05
0.0086527895 -0.020384064 5.8395177e-05
0.012348737 -0.020347772 9.4799398e-05
0.012499999 -0.0174824 2.507586e-06
-0.012499999 -0.013891296 3.4725294e-05
-0.012499999 -0.013664689 3.9909268e-05
-0.012499999 -0.010916499 2.071308e-05
-0.012499999 -0.0097224154 2.7993636e-05
-0.012499999 -0.0094427513 8.8371133e-05
0.012499999 -0.0082132872 7.8230863e-05
-0.012499999 -0.0077958764 1.83339e-05
-0.012499999 -0.0075258976 8.1031176e-05
0.012499999 -0.0072864788 5.4937089e-05
-0.012499999 -0.0050005456 4.7260313e-05
-0.012499999 -0.0042992905 6.0417689e-05
0.012499999 -0.0033529489 1.3842669e-05
-0.012499999 -0.0014935029 6.6463836e-05
0.012499999 0.0043841996 5.4475677e-05
0.012499999 0.0074446066 7.0090406e-05
0.012499999 0.011414289 8.3939813e-06
0.012499999 0.012027252 3.6082129e-06
-0.012499999 0.017453605 6.0956583e-05
0.012499999 0.019216346 5.44701e-05
-0.0062664188 0.020363947 7.8574194e-05
0.003260219 0.020344872 9.7707729e-05
0.0046428135 0.020386863 5.5586373e-05
0.012044906 0.02038995 5.2491334e-05
-0.0092694676 0.020420002 2.2346107e-05
-0.0034773524 0.020401709 4.0696417e-05
-0.0033133517 0.020412147 3.0227446e-05
-0.0029560784 0.020418422 2.393077e-05
-0.0014507505 0.020418476 2.3876855e-05
0.0056134434 0.020401102 4.1305699e-05
-0.0042080679 -0.020307304 0.00013539148
-0.00056916475 -0.020307207 0.00013548952
-0.0081144907 -0.020278446 0.00016433805
-0.0056504067 -0.020252025 0.00019084146
-0.0031865239 -0.020283546 0.00015922342
-0.0026036054 -0.020279683 0.00016309947
0.0052012154 -0.020280939 0.00016183952
0.0057257232 -0.020248093 0.000194786
0.012499999 -0.018162325 0.00017139595
-0.012499999 -0.015042669 0.00015588885
-0.012499999 -0.014640563 0.00017380982
-0.012499999 -0.013062703 0.00014968216
-0.012499999 -0.010769925 0.00018169126
0.012499999 -0.0098214094 0.00015922706
0.012499999 -0.0094594052 0.000114711
-0.012499999 -0.008966811 0.00013122195
-0.012499999 -0.0064510442 0.00011405977
-0.012499999 -0.0036436026 0.00019725069
0.012499999 -0.002851747 0.00010531902
-0.012499999 0.002717827 0.00016161485
0.012499999 0.0046512601 0.0001396942
0.012499999 0.0055766259 0.00010392122
0.012499999 0.0060415207 0.000120604
0.012499999 0.010594327 0.00017321287
0.012499999 0.012842155 0.00010676368
-0.012499999 0.013095819 0.00018402038
-0.012499999 0.014761748 0.00011354784
0.012499999 0.014956357 0.00011345744
-0.012499999 0.01576627 0.00019225539
-0.012499999 0.016171111 0.00012031168
-0.0095454408 0.020280976 0.00016180366
-0.0088180099 0.020261686 0.00018115147
0.0076862047 0.020299966 0.00014275318
0.0081953648 0.020278379 0.00016440488
-0.0098252418 0.020303538 0.00013917085
-0.008777719 0.020324752 0.00011788985
-0.00553797 0.020319119 0.00012354052
-0.0052159103 0.02033231 0.00011030849
0.011750876 0.020303074 0.00013963546
-0.011444706 -0.02020129 0.00024173559
-0.0060618818 -0.02023771 0.0002052021
0.0044578295 -0.02016446 0.00027401972
0.0056475597 -0.020192029 0.00025082304
0.011840128 -0.020161256 0.00027671616
0.012499999 -0.01767992 0.00028730882
-0.012499999 -0.012474314 0.00025765743
-0.012499999 -0.010271017 0.00025026454
-0.012499999 -0.0086984504 0.00023880973
-0.012499999 -0.0084127784 0.00026433845
0.012499999 -0.0083389934 0.00026899675
0.012499999 -0.0065695657 0.00028862315
0.012499999 -0.0032908074 0.00028354605
-0.012499999 -0.0013532583 0.00024515286
0.012499999 0.00086432137 0.0002227684
-0.012499999 0.0021077693 0.00027078995
0.012499999 0.0044362298 0.00025069073
0.012499999 0.004757267 0.00027968606
0.012499999 0.0050916052 0.00029233951
0.012499999 0.0091190245 0.00022847195
0.012499999 0.011801583 0.00025069964
0.012499999 0.01223743 0.00023796481
-0.0075948928 0.020136865 0.00029724016
-0.0060937088 0.020142846 0.00029220805
0.0074994657 0.020192366 0.00025053971
0.011898005 0.020177716 0.00026286568
-0.0092955381 0.020204218 0.0002387953
-0.0085109947 0.020214576 0.00022840622
-0.0046811113 0.020212281 0.00023070771
-0.0042526121 0.020210916 0.00023207799
0.0060813329 0.020215508 0.00022747251
0.011033355 0.020241849 0.00020104929
0.011204431 0.020204045 0.00023896979
0.012105996 0.020241726 0.00020117474
-0.006524608 -0.020114426 0.00031612246
-0.0054604472 -0.020131653 0.00030162564
-0.0020961598 -0.020120174 0.00031128403
0.0048882677 -0.020110715 0.00031924492
-0.011916406 -0.020033943 0.00038384361
-0.0046900846 -0.020079568 0.00034545199
-0.0019244254 -0.020058408 0.00036325594
0.0010298677 -0.020055693 0.00036554146
0.010634908 -0.020083115 0.00034246623
0.012499999 -0.015769273 0.00035684253
-0.012499999 -0.0050162696 0.00034483557
0.012499999 -0.0038503315 0.00039267773
-0.012499999 -0.0032845968 0.00038262032
-0.012499999 -0.0015616501 0.00033516483
0.012499999 -0.0012675896 0.00030226112
-0.012499999 -0.00093792472 0.00034535758
0.012499999 0.0023701801 0.0003502052
0.012499999 0.0045159333 0.00030463547
0.012499999 0.011209996 0.00031037888
-0.012499999 0.012796566 0.00031644624
-0.012499999 0.013162537 0.00036057469
-0.012499999 0.01330732 0.00033015589
0.012499999 0.014602138 0.00037534401
-0.012499999 0.018016901 0.00039215013
-0.012499999 0.018254332 0.00033128835
-0.012499999 0.019090462 0.00034938776
0.012499999 0.01966027 0.00034972513
-0.011922263 0.020041892 0.00037715602
-0.0087760668 0.02002495 0.00039141084
-0.0074371863 0.020029129 0.00038789358
-0.006931385 0.020089252 0.00033730257
-0.0049861968 0.02009221 0.00033481477
-0.0014945194 0.02003325 0.00038442583
0.0070838183 0.020092921 0.00033421483
0.0085283779 0.020016542 0.00039848444
0.010092026 0.020047246 0.00037264946
0.011672515 0.020050406 0.00036998795
-0.0085190181 0.02011768 0.0003133844
-0.0068738773 0.020111842 0.0003182962
0.0086726714 0.020101443 0.00032704568
-0.0082480339 -0.019984664 0.00042530807
-0.0037208882 -0.019916551 0.00048262146
-0.0032434599 -0.019967638 0.00043963629
0.00072963582 -0.019975454 0.00043305889
0.0025368957 -0.019951422 0.00045327944
0.0060385447 -0.019949611 0.00045480259
0.0061593801 -0.019929394 0.00047181494
0.01051542 -0.019943446 0.00045998977
-0.012499999 -0.019540815 0.00049977156
0.012499999 -0.018048301 0.00048411929
-0.012499999 -0.017611444 0.00040643581
-0.012499999 -0.015081246 0.00044981472
-0.012499999 -0.012231361 0.00043730118
0.012499999 -0.0073117316 0.00049292913
-0.012499999 -0.0025469742 0.00041146239
0.012499999 -0.0014857465 0.00042670174
-0.012499999 -0.0011466052 0.00046876399
0.012499999 -0.00027755275 0.00048272868
0.012499999 0.00020862371 0.00047419209
0.012499999 0.00050594192 0.00047136011
0.012499999 0.0030546407 0.00046965602
0.012499999 0.0031539656 0.00043590926
-0.012499999 0.0038451967 0.00043394987
0.012499999 0.010879697 0.00049651548
0.012499999 0.013154032 0.0004056851
0.012499999 0.014915557 0.00044108363
0.012499999 0.015278175 0.00042677912
0.012499999 0.01584398 0.00040794519
-0.012499999 0.019529864 0.00047547978
-0.0011823345 0.019897407 0.00049872953
-0.0093811005 0.019963171 0.00044339272
0.0073510054 0.019958369 0.00044743341
0.0099431509 0.019933727 0.00046816771
-0.0016443208 0.0200091 0.00040474461
-0.010404503 -0.019828862 0.00055640622
-0.0065329173 -0.019846039 0.00054195267
-0.0028200827 -0.019850792 0.00053795188
0.00088097854 -0.01987656 0.00051626959
0.0068356437 -0.019803096 0.00057808548
0.0091210343 -0.019818407 0.00056520227
0.010887883 -0.019778553 0.00059873756
0.012499999 -0.019356564 0.00058844651
-0.012499999 -0.01802727 0.00056203816
-0.012499999 -0.016486557 0.00050683785
0.012499999 -0.014577488 0.00057649915
-0.012499999 -0.01367301 0.0005761385
0.012499999 -0.013623423 0.00054445991
-0.012499999 -0.013094694 0.00055352296
-0.012499999 -0.011782952 0.0005146116
-0.012499999 -0.0092574786 0.00050156738
-0.012499999 -0.0045211883 0.00058789458
-0.012499999 -0.0038187646 0.00052446604
-0.012499999 -0.0025369232 0.00056818395
0.012499999 -0.0019172746 0.00051222235
-0.012499999 -0.00070999051 0.00053780596
-0.012499999 -0.0005638469 0.00052902848
0.012499999 -0.00033873715 0.00057127047
0.012499999 0.00027115317 0.00056156807
0.012499999 0.0020712162 0.00052747491
0.012499999 0.0039736833 0.00057798129
-0.012499999 0.0052050985 0.00056508032
-0.012499999 0.005972018 0.00054189446
-0.012499999 0.0066147796 0.00056395691
-0.012499999 0.014187159 0.00053811586
0.012499999 0.015040059 0.0005608229
0.012499999 0.015657566 0.00051941443
-0.012499999 0.018495664 0.00050975522
-0.011552002 0.019795127 0.00058479101
-0.0075292941 0.01978183 0.00059597992
-0.0045415056 0.019779969 0.00059754658
0.007658361 0.019779736 0.00059774029
-0.010501727 0.019857345 0.00053243694
-0.0084444769 0.019847946 0.00054034829
-0.0069593396 0.019805439 0.00057611504
-0.0034703058 0.019818088 0.00056547136
-0.0024640486 0.019852448 0.00053656095
-3.0519441e-06 0.019853298 0.00053584366
0.0056976266 0.019867264 0.00052409363
0.0063561872 0.019821929 0.00056224008
-0.012499999 -0.019720215 0.00064605032
0.0060978285 -0.019734353 0.00063592941
-0.009077834 -0.019699555 0.00066520862
-0.012499999 -0.014467898 0.00068138569
-0.012499999 -0.014397179 0.00063684734
0.012499999 -0.013648039 0.00063146302
0.012499999 -0.013063032 0.00064465357
0.012499999 -0.010053582 0.00068039377
0.012499999 -0.009842474 0.00069588888
0.012499999 -0.0079452163 0.000682174
0.012499999 -0.0076282411 0.00067155319
0.012499999 -0.0061044162 0.00068030111
-0.012499999 -0.0028428782 0.00062431744
0.012499999 -0.0027296655 0.0006851299
0.012499999 -0.0013004419 0.00063889805
-0.012499999 0.0020418596 0.00063345593
0.012499999 0.0061054081 0.0006074548
-0.012499999 0.0072626509 0.00067371322
-0.012499999 0.0096351923 0.00067856134
-0.012499999 0.0099641467 0.00060410897
-0.012499998 0.012891315 0.00062562223
0.012499999 0.014845334 0.00064328872
-0.012499999 0.017775487 0.00062606257
0.012499999 0.018477121 0.00065327005
-0.0029568579 0.01967774 0.00068356539
-0.0079286043 0.019753519 0.00061980187
-0.0017236592 0.019711627 0.00065505109
0.0017489376 0.019743716 0.00062804949
0.0038047545 0.019731823 0.00063805707
0.012401769 0.019710086 0.00065634627
-0.0047756224 -0.019620577 0.00073166518
-0.0019559748 -0.019647228 0.00070923939
-0.0014185248 -0.019618176 0.0007336844
0.0042130644 -0.019617736 0.00073405431
0.010762446 -0.019615799 0.00073568453
-0.010138564 -0.019591659 0.00075599801
-0.0076219272 -0.019549465 0.00079150108
-0.0049425103 -0.019554537 0.00078723417
0.00075051584 -0.019574329 0.00077057933
0.012499999 -0.015930155 0.00072750001
-0.012499999 -0.015645603 0.00075318315
0.012499999 -0.014859191 0.00071089307
0.012499999 -0.013180287 0.00071627926
-0.012499999 -0.012676283 0.00072099944
0.012499999 -0.01250365 0.00073632126
-0.012499999 -0.01068317 0.0007711167
-0.012499999 -0.009861432 0.00070676237
-0.012499999 -0.0074012554 0.00073638931
0.012499999 -0.0062938873 0.00079361757
0.012499999 -0.0055468814 0.00079946965
0.012499999 -7.7988487e-05 0.00071202172
-0.012499999 0.0019217331 0.00074744533
0.012499999 0.0026080231 0.00077300647
0.012499999 0.0033756406 0.00075140572
-0.012499999 0.0044611329 0.00070109731
0.012499999 0.0070294193 0.00074641162
-0.012499999 0.010710441 0.00074169296
0.012499999 0.011669679 0.00072627881
-0.012499999 0.017398648 0.00077827252
-0.012499999 0.019533411 0.00075825665
-0.0084262546 0.019592704 0.00075511768
-0.0052632391 0.019576449 0.00076879474
0.0059002228 0.019567965 0.00077593478
-0.0020851493 0.019626537 0.00072664884
0.0097859623 0.019630328 0.00072345912
0.011958178 0.019646142 0.00071015296
-0.011188837 -0.019506801 0.00082739966
-0.007933272 -0.019505467 0.00082852249
-0.0064840331 -0.019526888 0.00081049907
0.0057345689 -0.019526256 0.00081102998
-0.0047467672 -0.019431015 0.00089116779
0.0002945842 -0.019437704 0.00088553963
0.0026954606 -0.01944726 0.0008775015
0.0028367643 -0.019441394 0.00088243571
0.0031904425 -0.019429687 0.00089228642
0.010115314 -0.019475821 0.0008534675
0.012499999 -0.016283467 0.00081768062
0.012499999 -0.012223359 0.00083063974
-0.012499999 -0.0099680806 0.00082902529
0.012499999 -0.0070497394 0.00084951584
0.012499999 -0.0053310161 0.000810556
-0.012499999 -0.0014210262 0.00086352183
0.012499999 0.0038321489 0.00088747032
-0.012499999 0.0072301622 0.00085706089
0.012499999 0.0075538531 0.00080702436
-0.012499999 0.0095676072 0.00080997276
-0.012499999 0.0098067652 0.0008864025
-0.012499999 0.010242951 0.00089589413
-0.012499999 0.012102878 0.00089138123
0.012499999 0.013977786 0.00081685232
0.012499999 0.014017498 0.00087558635
0.012499999 0.014732573 0.00084263855
-0.012499999 0.016303619 0.00083533063
0.012499999 0.017006302 0.00085263653
-0.012499999 0.019401949 0.00084760599
-0.0038858918 0.019466139 0.00086161343
-0.00049452018 0.019441929 0.00088198495
0.012490215 0.019476334 0.0008530363
-0.0083234627 0.019514224 0.0008211541
-0.0043710885 0.019515105 0.00082041195
0.0019884491 0.019511018 0.00082385202
-0.010867408 -0.019304737 0.00099742261
-0.0073571443 -0.019379465 0.00093454518
-0.0056556594 -0.019391989 0.00092400669
-0.0046180007 -0.019388566 0.00092688826
-0.0016857807 -0.019378318 0.00093551097
-0.0012290815 -0.019367747 0.0009444051
0.0047012214 -0.01934566 0.00096298993
0.0053338856 -0.019373083 0.00093991432
0.010908116 -0.019336991 0.00097028469
0.011179734 -0.019329816 0.00097632204
0.012499999 -0.017327441 0.00091281766
0.012499999 -0.014390272 0.00097500731
0.012499999 -0.011679126 0.00091861316
0.012499999 -0.0091474988 0.00093814381
-0.012499999 -0.0084217638 0.00096661027
-0.012499999 -0.0069705127 0.00098988065
0.012499999 -0.0069531561 0.00095873466
0.012499999 -0.0051444918 0.00097595446
-0.012499999 -0.0048741652 0.00099770725
-0.012499999 -0.0040432033 0.00090154237
0.012499999 0.0041317092 0.00093534274
0.012499999 0.0048955698 0.00098685233
0.012499999 0.011551512 0.00096182211
-0.012499999 0.012009759 0.00092480151
0.012499999 0.013872203 0.00097333989
-0.0080709588 0.019310098 0.00099291315
-0.0053697601 0.01935057 0.00095885701
-0.0039027613 0.019346656 0.00096215139
0.0024437339 0.019341495 0.00096649455
0.0074625006 0.019325947 0.00097957696
0.010220699 0.019325882 0.00097963144
-0.009357553 0.01941761 0.00090244994
0.0071944343 0.019417705 0.00090236834
-0.010397838 -0.019214924 0.0010729962
-0.0075316746 -0.019240167 0.0010517564
-0.0068773217 -0.019255202 0.0010391055
-0.0046675131 -0.019234654 0.0010563949
-0.0017203065 -0.019296538 0.0010043234
-0.0015970441 -0.019226868 0.0010629458
-0.0012989361 -0.019261915 0.0010334559
0.00048711512 -0.01924002 0.0010518789
0.0020380854 -0.01921175 0.0010756662
0.0072116996 -0.019284047 0.0010148338
0.0067570689 -0.019199872 0.0010856603
0.012499999 -0.017886173 0.0010178937
0.012499999 -0.015473168 0.0010392199
0.012499999 -0.01509206 0.0010617075
0.012499999 -0.014321294 0.0010865703
0.012499999 -0.010375972 0.0010540696
0.012499999 -0.0059851771 0.0010680009
0.012499999 -0.0053261295 0.0010869458
-0.012499999 -0.0052733375 0.0010318989
-0.012499999 -0.0028965515 0.0010191977
-0.012499999 -0.0011304067 0.0010029108
-0.012499999 0.0045319996 0.0010358355
-0.012499999 0.0090992181 0.0010697655
-0.012499999 0.011627931 0.0010490781
-0.012499999 0.012559884 0.0010671888
0.012499999 0.018471148 0.001084436
-0.012499999 0.018811151 0.0010031515
-0.010731105 0.019192211 0.0010921074
-0.0062352433 0.019191392 0.0010927957
-0.0079850126 0.01920603 0.0010804795
-0.0073254202 0.019211106 0.0010762087
-0.0065226741 0.019229136 0.0010610364
0.00085388607 0.019247228 0.0010458137
0.0033166222 0.019269165 0.0010273559
0.0061199944 0.019247562 0.0010455339
-0.0048575569 -0.019107465 0.0011634163
-0.003411077 -0.019107912 0.0011630405
-0.01112918 -0.01909774 0.0011715996
-0.0070634498 -0.01909472 0.0011741404
-0.012499999 -0.018936906 0.0011048537
0.012499999 -0.018851306 0.0011757549
0.012499999 -0.018782847 0.0011864684
0.012499999 -0.014644617 0.0011552018
-0.012499999 -0.01345601 0.0011284808
-0.012499999 -0.0093882214 0.0011218707
-0.012499999 -0.0090062395 0.0011632832
-0.012499999 -0.0031672469 0.0011608968
-0.012499999 -0.0026874789 0.0011877802
-0.012499999 0.0051282337 0.0011094089
-0.012499999 0.0065045427 0.0011808545
-0.012499999 0.010810857 0.0011113236
0.012499999 0.012304826 0.0011489732
-0.012499999 0.013518122 0.0011453774
-0.012499999 0.013628575 0.0011671785
0.0078713577 0.019071782 0.001193441
-0.0063888486 0.019175954 0.0011057872
-0.0029574763 0.019150911 0.0011268596
-0.0019696113 0.019109048 0.0011620845
-0.0012483913 0.019127313 0.0011467146
0.002086493 0.019180559 0.0011019112
0.0064686481 0.019140769 0.001135393
0.0065530795 0.019135728 0.0011396331
-0.011764385 -0.019005716 0.0012490313
-0.0047832243 -0.019025873 0.0012320695
-0.0010168385 -0.019019268 0.0012376283
0.0026685693 -0.019010153 0.0012452996
-0.0088833738 -0.01897772 0.0012725865
-0.0027750107 -0.018960752 0.0012868661
0.0023653703 -0.018947557 0.0012979693
0.012499999 -0.015880806 0.0012406434
-0.012499999 -0.015114587 0.0012080928
-0.012499999 -0.013206544 0.0012897608
-0.012499999 -0.012763714 0.0012966348
-0.012499999 -0.012649129 0.0012374474
-0.012499999 -0.011483222 0.0012407161
0.012499999 -0.0092752995 0.0012864261
-0.012499999 -0.0040344489 0.001271829
-0.012499999 -0.0026815296 0.0012490206
0.012499999 -0.00024422351 0.0012499822
0.012499999 0.0012328408 0.0012443827
-0.012499999 0.0071506565 0.0012098653
-0.012499999 0.0072854073 0.0012393721
0.012499999 0.01070751 0.0012247096
0.012499999 0.011023379 0.0012355165
-0.012499999 0.012913267 0.0012791024
-0.012499999 0.013344226 0.0012188863
0.012499999 0.01504894 0.0012346364
-0.012498474 0.018961471 0.0012862623
-0.011851089 0.018953737 0.0012927689
-0.0078453384 0.018961737 0.0012860376
-0.0061362311 0.01896248 0.0012854105
-0.0053542759 0.018989762 0.0012624545
-0.0063458844 0.019058883 0.001204295
-0.0025536399 0.019020502 0.0012365897
0.0083779832 0.019050393 0.0012114379
-0.0096014012 -0.018935539 0.0013080812
-0.0038270038 -0.018933887 0.0013094698
0.0048556533 -0.018933676 0.0013096489
0.0062223147 -0.018920897 0.0013204003
0.0067500174 -0.018925868 0.0013162172
0.0068956278 -0.018929487 0.0013131737
0.0088351537 -0.018924346 0.0013174992
-0.011692747 -0.01888998 0.0013464168
-0.0093658436 -0.018866351 0.0013662983
-0.0022761356 -0.01883919 0.0013891523
0.0016140649 -0.018885568 0.0013501273
0.0097628394 -0.018885959 0.0013497998
0.010847531 -0.018832425 0.0013948445
0.012429576 -0.018863861 0.0013683944
0.012499999 -0.017278247 0.0013045315
-0.012499999 -0.015308078 0.0013293049
0.012499999 -0.014571566 0.0013835677
0.012499999 -0.013469358 0.001390342
0.012499999 -0.013058993 0.0013497425
-0.012499999 -0.012607299 0.0013633005
-0.012499999 -0.011324873 0.0013309213
-0.012499999 -0.0098858103 0.0013167649
0.012499999 -0.0065089893 0.0013909498
0.012499999 -0.0060113007 0.0013554303
-0.012499999 -0.0033360529 0.0013399262
0.012499999 -0.0021581915 0.001380201
-0.012499999 -0.00045713573 0.0013857984
0.012499999 0.0010776577 0.001302293
0.012499999 0.0014725437 0.0013542424
0.012499999 0.0021439278 0.0013626443
0.012499999 0.0089186598 0.0013131257
-0.012499999 0.010880131 0.0013199898
-0.012499999 0.0141276 0.0013975818
-0.012499999 0.017423218 0.001390126
0.0022806455 0.018885599 0.0013501014
0.0029620146 0.018836319 0.0013915674
0.0072292187 0.018846676 0.0013828548
0.0080750799 0.018837195 0.0013908319
0.010279339 0.018889068 0.0013471835
-0.011036979 0.018910475 0.0013291705
-0.0026522344 0.018904341 0.001334331
0.0044835415 0.018910771 0.0013289216
-0.0021971846 -0.018816996 0.0014078268
0.0020786552 -0.018818846 0.0014062709
-0.011341328 -0.018789997 0.0014305456
-0.0073268637 -0.018718895 0.0014903734
-0.0055782795 -0.018730288 0.0014807859
0.002002066 -0.018747907 0.0014659606
0.0025937855 -0.018726697 0.001483808
0.0030925036 -0.018772155 0.0014455576
0.012499999 -0.01799812 0.0014721426
0.012499999 -0.015759906 0.0014789023
-0.012499999 -0.014620297 0.0014783305
-0.012499999 -0.014503646 0.0014152916
-0.012499999 -0.013153297 0.0014287583
0.012499999 -0.008947134 0.0014461961
0.012499999 -0.0079231402 0.0014205091
-0.012499999 -0.0072083804 0.0014376062
-0.012499999 -0.0053322329 0.0014507615
0.012499999 -0.0053594764 0.0014739896
-0.012499999 -0.0017805272 0.001467125
-0.012499999 0.00060124951 0.0014897602
0.012499999 0.0021877184 0.0014357256
0.012499999 0.005496948 0.0014219333
0.012499999 0.0069650835 0.0014777249
-0.012499999 0.010156532 0.0014572274
-0.012499999 0.013629726 0.0014842351
0.012499999 0.015348944 0.0014642915
-0.012499999 0.017868297 0.0014335545
-0.012499999 0.018467415 0.0014803726
-0.010814292 0.018760776 0.0014551326
-0.0088132378 0.01872389 0.0014861706
-0.0023969507 0.018729296 0.0014816214
0.0020663401 0.018727064 0.0014834991
0.003752941 0.018754648 0.0014602884
0.0087930877 0.018774804 0.0014433292
0.010327724 0.018738637 0.0014737614
0.011288024 0.01875082 0.0014635088
-0.0069092866 0.018821813 0.0014037747
-0.0046413452 0.018812334 0.0014117491
-0.0022789612 0.018821921 0.0014036843
0.010237081 -0.018703479 0.001503343
-0.012399852 -0.018614592 0.0015781382
-0.00092764478 -0.018602472 0.0015883339
-0.00076184887 -0.018645745 0.0015519238
-0.00042018481 -0.018695358 0.0015101784
0.0058665592 -0.018657165 0.0015423154
0.0060502496 -0.018634642 0.0015612679
0.0087040402 -0.018697612 0.0015082813
0.0090382956 -0.018675968 0.0015264932
0.010590258 -0.018656144 0.0015431746
0.011437999 -0.018632127 0.0015633829
-0.012499999 -0.017687785 0.0015478275
0.012499999 -0.01562146 0.0015387411
0.012499999 -0.012917798 0.0015564755
-0.012499999 -0.0021874846 0.00159097
-0.012499999 0.00082728453 0.0015260892
0.012499999 0.0022895057 0.0015426313
0.012499999 0.0033488893 0.0015228449
-0.012499999 0.0034340578 0.0015487089
0.012499999 0.00449285 0.0015285972
0.012499999 0.0045740502 0.0015033691
0.012499999 0.0047877468 0.0015527784
0.012499999 0.0074963374 0.0015838626
-0.012499999 0.00801895 0.0015088004
0.012499999 0.010137416 0.0015061861
-0.012499999 0.010547781 0.0015138143
-0.012499999 0.011825005 0.001536085
-0.012499999 0.012444412 0.0015709248
-0.012499999 0.012718674 0.0015571675
-0.012499999 0.013243275 0.0015007246
-0.012499999 0.013671074 0.0015283072
0.012499999 0.013912216 0.0015400075
-0.012499999 0.015522393 0.001586265
-0.0098822489 0.018661698 0.0015385024
-0.0094115883 0.018699402 0.001506776
-0.0087147905 0.018631415 0.0015639819
-0.0066948966 0.018657709 0.0015418573
0.0043354095 0.018621475 0.0015723471
0.0096011674 0.018648794 0.0015493591
0.011240685 0.018606374 0.0015850526
-0.011306101 -0.018558735 0.001625138
-0.01035323 -0.018514313 0.0016625169
-0.0042616157 -0.018559892 0.0016241656
-0.0035519078 -0.018535698 0.0016445215
0.0069584916 -0.018586047 0.0016021568
-0.0048036296 -0.0184757 0.0016950064
0.0011508483 -0.018492613 0.0016807748
0.0043786629 -0.018474204 0.0016962651
0.0089124311 -0.018495016 0.0016787547
0.012499999 -0.016781118 0.0016550038
0.012499999 -0.010582312 0.0016733818
0.012499999 -0.0072565381 0.0016836125
0.012499999 -0.0049311402 0.0016767981
0.012499999 0.00046754256 0.0016292746
0.012499999 0.00065958407 0.0016645233
0.012499999 0.0069896765 0.00165001
0.012499999 0.011409147 0.0016074886
-0.012499999 0.012141629 0.0016750299
-0.012499999 0.013178712 0.0016941087
-0.012499999 0.013953135 0.0016618317
0.0030553641 0.018493315 0.0016801839
-0.011135234 0.01857613 0.0016105012
-0.007009306 0.018551879 0.0016309069
-0.0053937016 0.018528251 0.0016507873
-0.0028293822 0.018563669 0.0016209856
-0.0019428642 0.018518113 0.0016593192
0.00097386283 0.018542418 0.0016388672
0.0028290842 0.018546039 0.001635821
0.0033624237 0.018546106 0.001635764
0.0036412533 0.018546037 0.0016358217
0.0078854747 0.018522153 0.0016559196
-0.012058169 -0.018457184 0.0017105868
-0.0079868753 -0.018448496 0.0017178978
-0.0044607278 -0.01844229 0.0017231191
-0.003352229 -0.018438367 0.0017264186
0.00076254737 -0.018420011 0.0017418647
0.011357629 -0.018465491 0.001703597
-0.011334926 -0.018370725 0.0017833357
0.00041427463 -0.018355861 0.0017958446
0.0096228663 -0.018386135 0.0017703697
0.012499999 -0.017204612 0.0017366966
0.012499999 -0.012345255 0.0017386796
0.012499999 -0.012036568 0.0017688725
0.012499999 -0.011028809 0.0017219253
0.012499999 -0.010224656 0.0017132135
0.012499999 -0.0097225755 0.0017304134
0.012499999 -0.0089038294 0.0017534478
0.012499999 -0.0084186848 0.0017890933
-0.012499999 -0.0077722282 0.0017558555
0.012499999 -0.0069464901 0.0017820147
-0.012499999 -0.0055599911 0.001725155
0.012499999 -0.0039670025 0.0017013741
-0.012499999 -0.0013973657 0.0017723416
-0.012499999 -0.00042660302 0.0017995194
0.012499999 0.0078131175 0.0017876769
0.012499999 0.011195187 0.0017432035
-0.012499999 0.014701388 0.0017046109
-0.012499999 0.016012488 0.0017753043
-0.012499999 0.018004796 0.0017543647
0.012499999 0.018112674 0.0017834761
-0.0030996278 0.018361717 0.0017909147
-0.0026783999 0.018381439 0.0017743208
-0.002527691 0.018365139 0.0017880357
0.00036109006 0.018392414 0.0017650862
0.0010820511 0.018381992 0.0017738554
0.0020237891 0.018365875 0.0017874165
0.0032957408 0.018390177 0.0017669686
-0.0028214902 0.018452289 0.0017147055
-0.001838807 0.018410595 0.0017497891
0.0074396539 0.018417243 0.0017441956
-0.011532169 -0.018313197 0.001831742
-0.00090489816 -0.018300561 0.0018423756
-0.010236505 -0.018287228 0.001853593
-0.0070087761 -0.018262725 0.0018742117
-0.0012574065 -0.018280348 0.0018593831
0.0002154801 -0.018262299 0.0018745691
0.0063128769 -0.018297914 0.0018446024
0.0068023619 -0.018259818 0.0018766581
0.012499999 -0.016365698 0.0018838716
-0.012499999 -0.015439415 0.0018124681
0.012499999 -0.010424722 0.0018900339
-0.012499999 -0.0090657854 0.0018416937
-0.012499999 -0.0070839752 0.0018260984
-0.012499999 -0.0049464894 0.001820968
0.012499999 -0.0039704284 0.0018862868
0.012499999 -0.0016724714 0.0018001767
0.012499999 -0.00021427544 0.0018203619
-0.012499999 0.0040601571 0.0018672155
-0.012499999 0.0053104376 0.0018605444
-0.012499999 0.0064378213 0.0018978375
-0.012499999 0.0070362836 0.0018980922
0.012499999 0.01117594 0.0018598939
-0.012499999 0.011403947 0.0018163156
0.012499999 0.012040425 0.001840027
0.012499999 0.014115727 0.0018916386
-0.012499999 0.015506634 0.0018693218
-0.012499999 0.016207883 0.0018436577
0.012499999 0.016870592 0.0018334182
0.012499999 0.017015377 0.0018887236
-0.012499999 0.017174099 0.0018977871
-0.0097419722 0.018296178 0.001846064
-0.0052855089 0.018244836 0.0018892642
-0.0030572182 0.01829025 0.0018510513
0.0021182289 0.01826971 0.0018683336
0.0046097459 0.018292343 0.0018492893
0.0086903414 0.018272728 0.0018657948
-0.011741184 0.01831862 0.0018271803
-0.0087021636 0.018315829 0.0018295273
-0.0067859977 0.018300131 0.0018427367
0.0059987572 0.018344423 0.0018054682
0.0066328095 0.018317014 0.0018285295
-0.012135325 -0.018208245 0.0019200534
-0.0021536453 -0.01820928 0.0019191813
0.0089654364 -0.018230475 0.0019013472
-0.0078862719 -0.018143479 0.0019670425
-0.0059310282 -0.018186146 0.00193709
-0.0057194079 -0.018146977 0.0019645859
-0.0024436791 -0.01818167 0.0019402325
0.0099444259 -0.018120002 0.0019835224
0.011224802 -0.018116046 0.0019863003
0.012499999 -0.017584257 0.0019040476
0.012499999 -0.017158415 0.0019776789
-0.012499999 -0.015857968 0.0019458957
-0.012499999 -0.015336643 0.0019509676
-0.012499999 -0.012670013 0.0019298269
-0.012499999 -0.011615971 0.0019490903
0.012499999 -0.010839638 0.001914232
-0.012499999 -0.006225327 0.0019354954
0.012499999 -0.0035653906 0.001952454
-0.012499999 -0.00031380914 0.0019521927
-0.012499999 0.0010135141 0.0019598075
-0.012499999 0.0019339856 0.001955186
0.012499999 0.0028786287 0.0019338382
0.012499999 0.0035061829 0.001930312
-0.012499999 0.004496186 0.0019164237
0.012499999 0.0055754608 0.0019230917
-0.012499999 0.0088943047 0.0019161354
-0.012499999 0.010109191 0.0019494034
0.012499999 0.014034916 0.0019707214
-0.012499999 0.015179553 0.0019473438
-0.012499999 0.016081491 0.0019279136
0.012499998 0.017164884 0.0019749869
-0.012499999 0.017674949 0.0019864331
-0.0093671512 0.018112063 0.0019890952
0.00094928406 0.018165652 0.0019514766
0.0038785511 0.018179391 0.0019418325
0.010084117 0.018146586 0.0019648611
-0.0065235002 0.018202251 0.001925098
-0.0064813066 0.01821151 0.0019173047
-0.00339641 0.018229691 0.0019020074
0.0096687991 0.01820178 0.0019254929
0.0097277733 0.018229593 0.0019020898
0.011347775 0.018203331 0.0019241871
-0.0090548201 -0.018027076 0.0020487558
-0.0082530379 -0.018069208 0.0020191802
-0.0065815891 -0.018096456 0.0020000513
-0.0010776087 -0.01807892 0.0020123625
0.0021373886 -0.018096209 0.0020002248
0.00227352 -0.018063992 0.0020228417
0.0053193616 -0.018012621 0.0020589037
0.0085665574 -0.018012282 0.0020591423
0.011846535 -0.018000169 0.0020676458
0.012499999 -0.018010974 0.002042392
-0.011792272 -0.017975442 0.0020850045
0.011474632 -0.017957186 0.0020978197
0.011894202 -0.017997198 0.0020697296
0.012499999 -0.013139245 0.0020982372
-0.012499999 -0.011168352 0.0020890676
-0.012499999 -0.010293122 0.0020366933
0.012499999 -0.0099139754 0.0020959347
0.012499999 -0.0034852596 0.0020377182
-0.012499999 -0.0032799323 0.0020125748
-0.012499999 -0.0021152056 0.002095331
0.012499999 -0.0014376286 0.0020966041
0.012499999 -0.00096698245 0.002054679
0.012499999 0.0026723742 0.0020222503
-0.012499999 0.0030158297 0.0020132435
0.012499999 0.0030398173 0.002008494
-0.012499999 0.0068591721 0.0020663438
-0.012499999 0.008073925 0.0020115788
0.012499999 0.0086716469 0.0020314474
-0.012499999 0.010680927 0.0020506699
0.012499999 0.011587532 0.0020109522
-0.012499999 0.01474724 0.0020457357
0.012499999 0.016577 0.0020891745
0.012499998 0.01748745 0.0020113413
0.0011558905 0.01797526 0.0020851316
-0.010051616 0.018048329 0.0020338367
-0.004194364 0.018046997 0.0020347708
-0.0034864196 0.018043749 0.0020370521
-0.0020360276 0.018066887 0.0020208089
0.00042690616 0.018081374 0.00201064
0.0040936172 0.018086703 0.0020068977
0.0057130661 0.018051147 0.0020318585
0.0076880138 0.018070294 0.0020184177
0.008270232 0.018013414 0.0020583465
0.0076147462 -0.017911401 0.0021299606
-0.011458643 -0.017865932 0.0021618782
-0.010168031 -0.017845754 0.0021760443
-0.0068873721 -0.017832696 0.0021852101
-0.0038659105 -0.017891806 0.002143716
-0.0016733119 -0.017845165 0.0021764566
0.0090527749 -0.017812135 0.0021996445
0.010996464 -0.017827563 0.0021888134
-0.012499999 -0.013659487 0.0021396736
-0.012499999 -0.01313109 0.0021870523
0.012499999 -0.010546574 0.0021954707
0.012499999 -0.0086907689 0.0021214015
-0.012499999 -0.0055528721 0.0021049585
0.012499999 -0.0038695824 0.0021747765
-0.012499999 -0.0034653181 0.0021307976
0.012499999 -0.00011943607 0.0021945848
0.012499999 0.0068970798 0.0021214583
-0.012499999 0.017424557 0.0021012754
-0.0097480565 0.017818058 0.0021954866
-0.0083339941 0.017816372 0.00219667
-0.0069534578 0.017896574 0.002140369
-0.00014337339 0.017873116 0.0021568355
0.010463202 0.017848404 0.0021741837
0.010545642 0.017861292 0.0021651373
0.01094349 0.01785415 0.0021701502
-0.0066256709 0.017937129 0.0021118983
-0.0046780645 0.017949481 0.0021032295
0.0026827538 0.017912913 0.0021288991
0.0031698663 0.017917687 0.0021255475
0.010203381 0.017950118 0.0021027806
0.0045268205 -0.017806312 0.002203732
-0.0041882033 -0.017783187 0.0022199652
0.00080226385 -0.017701641 0.0022772113
0.0019831196 -0.017743871 0.0022475654
0.0045125945 -0.017720241 0.0022641537
0.0084882854 -0.017759182 0.0022368184
0.010721156 -0.01779503 0.0022116522
0.011795096 -0.017787522 0.0022169221
-0.0071893018 -0.017676927 0.0022945586
-0.0058364496 -0.017686754 0.0022876612
-0.0046984684 -0.017674929 0.0022959623
0.0050534247 -0.017688483 0.0022864467
0.012499999 -0.016557453 0.0022334121
-0.012499999 -0.014870551 0.0022792572
0.012499999 -0.014104544 0.0022166581
-0.012499999 -0.013716049 0.0022254498
-0.012499999 -0.013380206 0.0022379123
0.012499999 -0.013395997 0.0022183978
-0.012499999 -0.0072398041 0.002254664
0.012499999 -0.0056330441 0.0022674906
-0.012499999 -0.0037018284 0.0022556349
0.012499999 -0.0026592524 0.0022422501
0.012499999 -0.0012472328 0.0022593141
-0.012499999 0.0012770998 0.0022246833
-0.012499999 0.0027580794 0.0022177941
-0.012499999 0.0080029443 0.0022792015
0.012499999 0.0093867052 0.0022539867
-0.012499999 0.0098367408 0.0022532204
-0.012499999 0.010574949 0.0022113225
-0.012499999 0.014004316 0.0022247632
0.012499999 0.014185393 0.0022338904
-0.00092338305 0.017684564 0.0022891988
0.011539933 0.017691569 0.0022842814
-0.01003808 0.017758546 0.0022372638
-0.0099800359 0.017788677 0.0022161123
-0.0084635932 0.017711561 0.0022702462
-0.0081274416 0.017740371 0.0022500227
-0.0052847005 0.01774295 0.0022482118
0.0087046325 0.017744794 0.002246917
0.0098778782 0.017765315 0.0022325122
0.010276681 0.017708847 0.0022721509
0.0034384676 0.017803477 0.0022057223
-0.010392841 -0.01764955 0.0023137787
-0.0078031067 -0.017649746 0.0023136416
0.004192533 -0.017608766 0.0023424092
0.0058506671 -0.017618589 0.0023355123
0.012081852 -0.017655475 0.0023096194
-0.0046644574 -0.017531792 0.0023964455
-0.00066653942 -0.017573882 0.002366899
0.0064712437 -0.017588437 0.0023566801
0.0066175805 -0.017549271 0.0023841746
0.0075390786 -0.017598482 0.0023496286
0.0077780564 -0.017597785 0.0023501171
0.012499999 -0.016619427 0.0023711373
0.012499999 -0.016551986 0.0023622022
-0.012499999 -0.011489148 0.0023072716
-0.012499999 -0.010199208 0.0023415878
-0.012499999 -0.0080771521 0.0023241534
-0.012499999 -0.0067838593 0.0023791995
0.012499999 -0.0066766152 0.0023703442
-0.012499999 -0.0030825762 0.0023278838
0.012499999 -0.0030300641 0.0023691859
-0.012499999 -0.00098946737 0.0023807024
-0.012499999 -0.00029189524 0.002374788
-0.012499999 0.0080535766 0.0023691808
-0.012499999 0.0087874066 0.0023766682
0.012499999 0.011560202 0.0023493285
-0.0043643042 0.017586792 0.0023578345
-0.0026622145 0.017527059 0.0023997661
-0.0015977202 0.017535537 0.002393814
0.0043481886 0.017588882 0.0023563665
0.0084493691 0.017534986 0.0023942022
0.011974011 0.017563542 0.0023741554
-0.0020550415 0.017660834 0.0023058574
-0.0073249396 -0.01752473 0.0024014008
-0.0050074533 -0.017525569 0.0024008127
-0.012410959 -0.017476348 0.0024353648
-0.012058169 -0.017437508 0.002462632
-0.011842864 -0.017457491 0.0024486047
-0.010778677 -0.017482951 0.002430731
-0.010379924 -0.017481813 0.0024315303
-0.0088288952 -0.017478915 0.0024335631
-0.0071262345 -0.017483477 0.0024303617
-0.006310428 -0.017488282 0.0024269889
0.0038212717 -0.017423714 0.0024723157
0.0047377693 -0.01740082 0.0024883854
0.0067737401 -0.017498573 0.0024197639
-0.0032047522 -0.017394345 0.0024929312
-0.001354466 -0.017388096 0.0024973177
0.012499999 -0.016086994 0.0024133967
0.012499999 -0.013625287 0.0024824417
0.012499999 -0.01217566 0.0024851055
0.012499999 -0.011177661 0.002453787
0.012499999 -0.011075963 0.0024559803
-0.012499999 -0.010254507 0.0024645554
0.012499999 -0.0076020542 0.002403097
0.012499999 -0.0067537315 0.0024942572
0.012499999 -0.0056024068 0.002424778
-0.012499999 -0.0051618619 0.0024204128
0.012499999 -0.0031298869 0.0024794559
0.012499999 -0.0026762101 0.002439626
0.012499999 0.0021963692 0.0024894043
0.012499999 0.0029166299 0.0024080249
0.012499999 0.0039756387 0.0024884969
0.012499999 0.0060355202 0.0024254746
-0.012499999 0.0083948998 0.0024130959
0.012499999 0.0093254643 0.0024741325
0.012499999 0.010679031 0.0024879032
-0.012499999 0.011213364 0.0024844988
0.012499999 0.013823245 0.0024746791
0.012499999 0.014398623 0.0024478701
-0.012499999 0.015872605 0.0024344812
-0.0077965297 0.017405037 0.0024854247
-0.0067934748 0.017481353 0.0024318532
-0.0023841709 0.017432056 0.0024664588
-0.0017845416 0.017470554 0.0024394328
0.00030821282 0.017436652 0.0024632323
0.0033755396 0.017447799 0.0024554064
0.0067306329 0.01748844 0.0024268776
0.0079665072 0.017400045 0.0024889309
0.0098022325 0.017424302 0.0024719017
0.010514019 0.017498486 0.0024198254
0.010766594 0.017441919 0.0024595354
0.010973719 0.017441748 0.0024596548
-0.011760453 0.017502075 0.0024173053
0.002981646 0.017521665 0.0024035531
0.0069955094 0.017523739 0.0024020963
-0.011992062 -0.017314952 0.0025486646
-0.0076919496 -0.017338676 0.00253201
-0.0039039254 -0.017335353 0.0025343441
-0.0013220198 -0.017323485 0.0025426752
0.0047180611 -0.017305637 0.0025552046
0.0072764158 -0.017319724 0.0025453158
0.010418341 -0.017384239 0.0025000265
0.0072142635 -0.017276986 0.0025753183
0.0091651669 -0.017279681 0.0025734254
-0.012499999 -0.015972622 0.0025813286
-0.012499999 -0.015631964 0.0025421293
0.012499999 -0.012924491 0.0025967252
0.012499999 -0.0088681998 0.0025319494
0.012499999 -0.007988397 0.0025297389
0.012499999 -0.0062088533 0.0025479756
-0.012499999 0.00131557 0.0025311576
-0.012499999 0.0019384157 0.0025923895
-0.012499999 0.0029405246 0.0025395465
-0.012499999 0.0033377695 0.0025901303
0.012499999 0.0037298049 0.0025071418
0.012499999 0.0060115037 0.0025752238
-0.012499999 0.009682836 0.0025312365
-0.012499999 0.010572741 0.0025922928
0.0125 0.01157555 0.002541698
0.012499999 0.014035702 0.0025266835
0.012499999 0.017198602 0.0025604079
-0.0081680864 0.017268747 0.0025811011
0.002869983 0.017294712 0.0025628742
0.0063931653 0.017287998 0.0025675874
0.0076637226 0.01728957 0.0025664838
0.010301108 0.017274942 0.0025767521
-0.0037038755 0.017350901 0.002523429
-0.0024659606 0.017353002 0.0025219542
-0.00014865212 0.017320132 0.0025450292
0.0016245837 0.017340561 0.0025306884
0.0052822493 0.017304763 0.0025558174
-0.0053665582 -0.017229544 0.0026086206
-0.002521296 -0.01722277 0.0026133768
-0.0081939101 -0.01711493 0.0026890796
-0.00015694369 -0.017101802 0.0026982957
0.0050663967 -0.017198443 0.0026304538
0.0062024454 -0.017146625 0.0026668301
0.0098388027 -0.017192047 0.0026349442
0.012499999 -0.015067975 0.0026425773
-0.012499999 -0.014161207 0.0026083961
-0.012499999 -0.0107905 0.0026785498
0.012499999 -0.0089278407 0.0026719968
0.012499999 -0.0086531444 0.0026349057
0.012499999 -0.0084148645 0.0026737791
-0.012499999 -0.0032670451 0.00264135
0.012499999 -0.0032207014 0.0026819087
-0.012499999 0.0034959489 0.0026251455
0.012499999 0.0035968134 0.0026774267
0.012499999 0.0099469181 0.0026754288
-0.012499999 0.012656977 0.0026152178
-0.011381296 0.01713285 0.0026765014
-0.00433204 0.017132573 0.0026766942
0.0012629016 0.017116372 0.0026880687
0.0047891382 0.017114731 0.0026892198
0.0073641967 0.017151039 0.0026637309
0.0088372631 0.017152263 0.0026628722
-0.0041009872 0.017229265 0.0026088182
0.012314888 0.017223828 0.0026126341
-0.0096014012 -0.017042117 0.0027401932
-0.0090641268 -0.017042523 0.0027399093
-0.0067914971 -0.0170621 0.002726167
-0.0044832048 -0.017058704 0.00272855
-0.0036112093 -0.0170015 0.002768707
-0.003306441 -0.01704631 0.0027372516
-0.0017035306 -0.017097851 0.0027010692
0.00072206307 -0.017082648 0.0027117422
0.0028222075 -0.017022911 0.0027536761
-0.012499999 -0.01668494 0.0027501362
-0.012499999 -0.016518969 0.0027908974
0.012499999 -0.015808105 0.0027387976
0.012499999 -0.013099326 0.0027104532
0.012499999 -0.011893357 0.0027564981
-0.012499999 -0.011559807 0.0027482789
-0.012499999 -0.010298992 0.002706314
0.012499999 -0.0083514433 0.0027636671
0.012499999 -0.0081842616 0.0027138554
0.012499999 -0.0072109425 0.0027261246
-0.012499999 -0.0066534136 0.0027257241
0.012499999 -0.0060270904 0.0027401538
0.012499999 -0.004794769 0.0027781895
-0.012499999 -0.0026698094 0.0027807183
-0.012499999 -0.00024725986 0.0027375559
0.012499999 0.00044061104 0.0027783613
0.012499999 0.00050590094 0.0027083028
-0.012499999 0.001264253 0.0027033745
-0.012499999 0.0016401024 0.0027207292
0.012499999 0.0051459391 0.0027510813
0.012499999 0.0062546688 0.002707453
0.012499999 0.0063072946 0.0027239346
0.012499999 0.011871723 0.0027672681
0.012499999 0.015790224 0.0027274766
0.010831645 0.016971601 0.0027896969
0.01164354 0.016972654 0.0027889565
-0.010885358 0.017078832 0.0027144207
-0.0083664693 0.017029256 0.0027492235
-0.0055724755 0.017069697 0.0027208333
