# .PCD v0.7 - Point Cloud Data file format
VERSION 0.7
FIELDS x y z
SIZE 4 4 4
TYPE F F F
COUNT 1 1 1
WIDTH 1207
HEIGHT 1
VIEWPOINT 0 0 0 1 0 0 0
POINTS 1207
DATA ascii
0.011135433 0.017081868 -0.0045818691
-0.0085756574 -0.016907861 -0.0044078631
-0.0084528886 -0.016910706 -0.0044107074
-0.0080621485 -0.016931394 -0.0044313949
-0.0041931979 -0.016984429 -0.004484429
-3.8049184e-06 -0.016924966 -0.0044249659
0.0033871287 -0.016988741 -0.004488742
0.0038028085 -0.016995974 -0.0044959742
0.011929445 -0.016966822 -0.0044668224
0.012499999 -0.015679654 -0.0044939253
-0.012499999 -0.015196614 -0.004417941
0.012499999 -0.0089805108 -0.0044197934
0.012499999 -0.0039672432 -0.0044340165
0.012499999 -0.0038877605 -0.0044597508
0.012499999 -0.0033622221 -0.0044533331
0.012499999 -0.0025655623 -0.0044350801
-0.012499999 -0.0005047681 -0.0044123032
0.012499999 0.00052004121 -0.0044406392
-0.012499999 0.0040380051 -0.0044247042
-0.012499999 0.0067593013 -0.0044697225
0.012499999 0.0080019776 -0.0044675227
0.012499999 0.010007564 -0.0044009136
-0.012499999 0.015422491 -0.0044539794
-0.012499999 0.016381688 -0.0044528544
-0.012447683 0.016913014 -0.0044130152
-0.010987494 0.016969895 -0.0044698967
-0.0094302967 0.01696353 -0.0044635301
-0.0077287555 0.016933313 -0.0044333143
-0.0062444042 0.016969215 -0.0044692168
-0.0045744907 0.016992684 -0.0044926843
-0.0043309056 0.016974397 -0.0044743982
-0.002721223 0.016935091 -0.0044350922
-0.01038909 -0.016851785 -0.0043517854
-0.010196202 -0.016864231 -0.0043642311
-0.0086244717 -0.016853547 -0.0043535475
-0.0043046852 -0.016816895 -0.0043168948
-6.1659841e-05 -0.016870975 -0.0043709753
0.0022640128 -0.01681076 -0.0043107606
0.0040798136 -0.016839892 -0.004339892
0.0052468604 -0.016812947 -0.0043129479
-0.012499999 -0.015164216 -0.0043156012
-0.012499999 -0.013887654 -0.004350726
-0.012499999 -0.012705475 -0.0043733492
-0.012499999 -0.0058333986 -0.0043829554
-0.012499999 -0.0051669022 -0.0043399706
-0.012499999 0.0052976594 -0.0043931198
0.012499999 0.0053653507 -0.0043178704
0.012499999 0.0089339539 -0.0043016621
-0.012499999 0.016139189 -0.0043241051
-0.011760453 0.016858889 -0.0043588881
-0.008710973 0.016871111 -0.0043711117
-0.0078561176 0.016876934 -0.0043769348
-0.0070970561 0.016872436 -0.0043724366
-0.0056004226 0.01681813 -0.0043181311
-0.0044697225 0.016885418 -0.0043854187
-0.0013836827 0.016834946 -0.0043349471
-0.00097727031 0.016835408 -0.0043354095
-0.00056259613 0.016853815 -0.0043538157
0.0028315382 0.016805056 -0.0043050577
0.0088594966 0.016814226 -0.0043142275
0.011008486 0.016806463 -0.004306464
0.011442201 0.016846083 -0.0043460838
-0.012259277 -0.016764347 -0.0042643459
-0.0059789773 -0.016715556 -0.0042155571
-0.0048041809 -0.016737547 -0.0042375484
-0.0025171116 -0.016716732 -0.004216732
-0.0014227947 -0.016714638 -0.0042146388
0.00051266409 -0.016724192 -0.0042241928
0.0041094194 -0.016746562 -0.0042465623
0.010246708 -0.016789025 -0.0042890254
0.012499999 -0.016417906 -0.0042670267
0.012499999 -0.015918333 -0.004264731
-0.012499999 -0.01416528 -0.0042775595
-0.012499999 -0.014068966 -0.0042946041
-0.012499999 -0.012569157 -0.0042126342
-0.012499999 -0.011825381 -0.0042906278
-0.012499999 -0.0093813343 -0.0042872205
-0.012499999 -0.0087935701 -0.0042957389
-0.012499999 -0.0073843934 -0.0042849481
-0.012499999 -0.0060154945 -0.0042843786
0.012499999 -0.0049067242 -0.004231249
-0.012499999 -0.0032249403 -0.0042684623
-0.012499999 0.00032087762 -0.0042428491
-0.012499999 0.00066113618 -0.0042678937
0.012499999 0.0023458935 -0.0042860787
0.012499999 0.008705616 -0.0042253439
0.012499999 0.010074615 -0.0042448267
-0.012499999 0.010554641 -0.0042565148
0.012499999 0.010851536 -0.0042070644
0.012499999 0.015995152 -0.0042376304
-0.0098750051 0.016712479 -0.00421248
-0.00011467747 0.01675049 -0.0042504901
0.0017276704 0.016739942 -0.0042399429
0.0077101872 0.016793322 -0.004293323
0.011289597 0.016768957 -0.0042689578
-0.012002572 -0.016686246 -0.0041862461
0.0012339946 -0.016657757 -0.0041577579
0.0022243569 -0.016602602 -0.0041026026
-0.012499999 -0.01641346 -0.0041050091
0.012499999 -0.016468598 -0.0041466779
-0.012499999 -0.016032042 -0.004125671
-0.012499999 -0.012122832 -0.0041084536
-0.012499999 -0.011823596 -0.0041096029
0.012499999 -0.01081894 -0.0041411687
0.012499999 -0.0087675005 -0.0041089444
0.012499999 -0.0083069876 -0.0041408283
-0.012499999 -0.0081428792 -0.0041101766
0.012499999 -0.0080194417 -0.0041316217
-0.012499999 -0.0064537786 -0.0041073053
0.012499999 -0.0058037164 -0.0041768169
0.012499999 -0.0045123328 -0.0041559539
0.012499999 0.0031145564 -0.0041454178
-0.012499999 0.0062719146 -0.0041897935
0.012499999 0.0063950187 -0.0041830107
0.012499999 0.006497649 -0.0041470602
-0.012499999 0.011002731 -0.0041514649
-0.01041699 0.016650908 -0.004150908
-0.0093867667 0.016668893 -0.0041688946
-0.0073350389 0.016600614 -0.0041006156
-0.0067934748 0.016616216 -0.0041162171
-0.0057191066 0.016679969 -0.0041799704
-0.0056388434 0.01664466 -0.0041446621
-0.0011697831 0.016636183 -0.0041361852
0.0006694789 0.016693218 -0.0041932184
0.0018999102 0.016625838 -0.0041258382
0.00701947 0.016635969 -0.0041359705
0.007297419 0.016647991 -0.0041479915
0.0075640688 0.016652506 -0.0041525066
0.00836665 0.016678203 -0.0041782032
0.010570865 0.016685078 -0.0041850782
-0.011347728 -0.016529225 -0.0040292246
-0.01086455 -0.016597187 -0.0040971888
-0.0078308005 -0.016543593 -0.004043594
-0.00054456771 -0.016504332 -0.0040043341
0.0075665684 -0.016537782 -0.0040377835
0.0084173642 -0.016552916 -0.0040529165
0.010131869 -0.01655929 -0.004059291
0.010656117 -0.016520916 -0.0040209172
0.011547692 -0.016581377 -0.0040813773
0.011771484 -0.01653637 -0.0040363697
0.012499999 -0.015660977 -0.0040446389
0.012499999 -0.013753953 -0.0040759835
-0.012499999 -0.012766923 -0.0040589985
-0.012499999 -0.012514773 -0.0040463232
-0.012499999 -0.010397088 -0.0040561184
0.012499999 -0.0060980902 -0.0040512877
-0.012499999 -0.0057370369 -0.00405727
0.012499999 -0.005068481 -0.0040755621
0.012499999 0.0011580568 -0.0040887576
-0.012499999 0.0058524972 -0.0040952428
0.012499999 0.0093894601 -0.0040878956
-0.012499999 0.010067673 -0.0040877699
-0.012499999 0.010699315 -0.0040001497
0.012499999 0.012309451 -0.0040570479
-0.0070878081 0.016518803 -0.0040188036
-0.0043710885 0.016505759 -0.0040057604
-0.0039978367 0.016518978 -0.0040189796
0.0019035093 0.016512265 -0.0040122652
0.0059091873 0.016534548 -0.0040345495
0.0086226072 0.016546076 -0.004046076
0.0098966518 0.016579581 -0.0040795822
0.010989013 0.016578894 -0.0040788949
-0.011913281 -0.016413102 -0.0039131036
-0.011284059 -0.016479287 -0.0039792876
-0.0077584349 -0.01647296 -0.0039729616
-0.0076560229 -0.016421672 -0.0039216727
-0.0010661089 -0.016490612 -0.003990612
0.0016657822 -0.0164968 -0.0039968002
0.0019300474 -0.016435307 -0.0039353073
0.0021349709 -0.016490826 -0.0039908262
0.0036996661 -0.016443325 -0.0039433255
0.0084893191 -0.016476395 -0.0039763954
0.010327434 -0.016417069 -0.0039170692
0.010586461 -0.016499516 -0.0039995154
0.0121429 -0.016492406 -0.0039924062
-0.012499999 -0.014652054 -0.0039694887
-0.012499999 -0.011398549 -0.0039758557
-0.012499999 -0.010424485 -0.0039891643
0.012499999 -0.0071483976 -0.0039239861
0.012499999 -0.0056856978 -0.0039623962
0.012499999 -0.0021099653 -0.0039944761
0.012499999 -0.00084490608 -0.0039654681
0.012499999 0.00013545807 -0.0039096135
0.012499999 0.0034193611 -0.0039138673
0.012499999 0.0075814412 -0.0039295172
0.012499999 0.0085974205 -0.0039041042
0.012499999 0.01112888 -0.0039280211
0.012499999 0.011213935 -0.0039485972
0.012499999 0.014182429 -0.0039845919
-0.012499999 0.015300052 -0.0039323866
-0.011043461 0.016401116 -0.0039011177
-0.0083234627 0.016494712 -0.0039947131
-0.00635145 0.016409036 -0.0039090361
-0.0017845416 0.016489781 -0.0039897822
0.0019884491 0.016454551 -0.0039545526
0.0037883171 0.016404497 -0.0039044977
0.0070021781 0.016455946 -0.0039559458
-0.0069657099 -0.016343996 -0.0038439962
-0.0064266785 -0.016380055 -0.0038800561
-0.0051576965 -0.0163962 -0.0038962015
-0.0038039547 -0.01636124 -0.0038612408
-0.0027366458 -0.016334193 -0.0038341936
-0.00020999752 -0.016335545 -0.0038355454
0.00057625282 -0.016303241 -0.0038032413
0.001802668 -0.016373727 -0.0038737278
0.0067728688 -0.016345443 -0.0038454444
0.007436607 -0.016345553 -0.0038455555
0.0098489877 -0.016359143 -0.0038591437
0.012499999 -0.015802665 -0.0038812691
-0.012499999 -0.012191184 -0.0038614296
-0.012499999 -0.011447039 -0.0038969466
-0.012499999 -0.0098438682 -0.0038240817
-0.012499999 -0.0084416559 -0.0038620126
-0.012499999 -0.0045080106 -0.0038550165
0.012499999 0.0028281077 -0.0038743862
0.012499999 0.0039942423 -0.0038439678
-0.012499999 0.011389283 -0.0038170707
0.012499999 0.013323287 -0.0038773599
0.012499999 0.013781979 -0.0038191359
-0.012499999 0.014120107 -0.0038783234
0.012499999 0.015289101 -0.0038577593
-0.0070390608 0.01639382 -0.0038938208
-0.0052750465 0.016301248 -0.0038012497
0.0014419658 0.016378796 -0.0038787962
0.0036234818 0.016327461 -0.003827462
0.0053588152 0.016312992 -0.0038129929
0.005744616 0.016300593 -0.0038005929
0.010361671 0.016359219 -0.0038592196
0.01245749 0.016345128 -0.0038451292
-0.0035144745 -0.016286029 -0.0037860305
-0.0016561245 -0.016268281 -0.003768282
0.0059799589 -0.016220076 -0.0037200768
0.012499999 -0.014346609 -0.0037568794
0.012499999 -0.012980673 -0.0037589199
-0.012499999 -0.012353943 -0.0037889928
0.012499999 -0.011911464 -0.0037392327
-0.012499999 -0.010729001 -0.0037162318
0.012499999 -0.0090511534 -0.0037095472
-0.012499999 -0.0018786637 -0.0037256372
-0.012499999 -0.0014231716 -0.0037602782
0.012499999 -0.0011956394 -0.0037581683
-0.012499999 0.0015724062 -0.0037743491
-0.012499999 0.0025067993 -0.003720934
0.012499999 0.0068973145 -0.0037275134
-0.012499999 0.0080533363 -0.0037215226
-0.012499999 0.010464543 -0.0037297513
-0.012499999 0.012028403 -0.0037226989
0.012499999 0.012958651 -0.003759145
0.012499999 0.014636622 -0.0037187645
-0.0096492469 0.016286438 -0.0037864391
-0.0061311126 0.01624847 -0.0037484712
-0.0032278099 0.016252941 -0.003752941
-0.0012906389 0.016201144 -0.0037011444
0.0011659837 0.016274314 -0.0037743149
0.0033755396 0.01622333 -0.0037233313
0.0044651823 0.016208727 -0.0037087277
0.0054941652 0.016274482 -0.0037744818
0.0083115529 0.016201841 -0.0037018417
0.0088825999 0.016287712 -0.0037877129
0.011736857 0.016294582 -0.0037945835
-0.0078664217 -0.016183497 -0.0036834981
-0.0048493128 -0.016151676 -0.0036516767
0.0056329435 -0.016172022 -0.0036720224
0.012499999 -0.01429036 -0.0036229559
0.012499999 -0.012200328 -0.0036123716
-0.012499999 -0.010818703 -0.0036242255
-0.012499999 -0.010509098 -0.0036082491
0.012499999 -0.0083303023 -0.0036726645
-0.012499999 -0.0081510711 -0.0036679357
0.012499999 -0.004671067 -0.0036900439
-0.012499999 0.0013686635 -0.003632505
-0.012499999 0.0018366396 -0.0036608544
-0.012499999 0.0037255511 -0.0036779591
-0.012499999 0.007334298 -0.0036295485
0.012499999 0.012837969 -0.0036770678
-0.012499999 0.015099189 -0.0036626249
-0.0052035451 0.01611365 -0.0036136499
-0.00072656386 0.016141253 -0.0036412533
0.0016676369 0.016124655 -0.0036246555
0.0059975497 0.016123893 -0.0036238935
0.0064838575 0.01617397 -0.0036739709
0.0069170096 0.016128786 -0.0036287853
0.0098601338 0.01619792 -0.0036979215
-0.0094394274 -0.016083647 -0.0035836468
-0.0016488137 -0.016070098 -0.0035700977
-0.0014593401 -0.016076915 -0.0035769157
0.010612151 -0.016074872 -0.0035748715
0.012499999 -0.015826987 -0.0035671266
0.012499999 -0.015779439 -0.0035257142
0.012499999 -0.0099440366 -0.0035321563
0.012499999 -0.0063597597 -0.003527848
0.012499999 -0.0012542107 -0.0035090966
0.012499999 0.0014992845 -0.0035882548
0.012499999 0.0025527626 -0.0035073846
0.012499999 0.0030567222 -0.003546841
0.012499999 0.0040040035 -0.0035055075
0.012499999 0.0056047789 -0.0035998377
0.012499999 0.0058484566 -0.0035998803
-0.012499999 0.009629936 -0.0035114554
0.012499999 0.010473254 -0.0035518399
0.012499999 0.010721365 -0.0035257807
0.012499999 0.011244335 -0.0035137059
0.012499999 0.012705056 -0.0035677918
-0.012499999 0.014177296 -0.0035536899
-0.0071242899 0.01608259 -0.0035825905
-0.0046630674 0.016039774 -0.003539776
-0.0023841709 0.016038973 -0.0035389727
-0.0012643356 0.016070068 -0.0035700677
0.00030821282 0.016092792 -0.0035927922
0.0026983083 0.016065167 -0.0035651694
0.0044034645 0.016031081 -0.0035310807
0.006437588 0.016069174 -0.0035691741
0.0089873429 0.016049331 -0.0035493316
-0.010956615 -0.015976096 -0.0034760977
-0.009118896 -0.015927177 -0.0034271781
0.008188989 -0.015938878 -0.0034388783
0.0088273743 -0.015990088 -0.0034900885
0.012499999 -0.014411939 -0.0034067589
-0.012499999 -0.012820634 -0.0034505874
0.012499999 -0.012419971 -0.0034183646
0.012499999 -0.010938434 -0.003452067
-0.012499999 -0.010813273 -0.0034953668
-0.012499999 -0.0088443207 -0.0034798575
0.012499999 -0.0084627885 -0.0034896159
-0.012499999 -0.0040819766 -0.0034959628
-0.012499999 -0.0028581528 -0.0034822449
0.012499999 -0.0014161794 -0.0034412767
0.012499999 0.0020406959 -0.0034506891
-0.012499999 0.0034715065 -0.0034230598
-0.012499999 0.0042745289 -0.0034858235
-0.012499999 0.0055309529 -0.0034344359
0.012499999 0.0089504644 -0.003487051
-0.012499999 0.010598258 -0.0034905951
-0.012499999 0.015886763 -0.0034637358
-0.0084558576 0.015923264 -0.0034232638
-0.0070107304 0.015966877 -0.0034668793
-0.0013231039 0.015974147 -0.0034741475
0.0026517166 0.015971003 -0.0034710048
0.006411857 0.015987353 -0.0034873534
0.0075546098 0.015994078 -0.0034940778
0.010203159 0.015997488 -0.0034974881
0.010546088 0.015965411 -0.003465412
0.010975285 0.015913967 -0.0034139687
-0.010850668 -0.015835527 -0.0033355281
-0.0076404028 -0.015842866 -0.0033428662
-0.0069416892 -0.015895456 -0.0033954559
-0.0055898814 -0.015833614 -0.0033336147
-0.0040272921 -0.015875136 -0.0033751377
0.0093815736 -0.015895389 -0.0033953893
-0.012499999 -0.015363473 -0.0033720699
-0.012499999 -0.01495994 -0.0033438038
0.012499999 -0.014175802 -0.0033605273
0.012499999 -0.013254169 -0.0033040836
-0.012499999 -0.012417649 -0.0033142832
-0.012499999 -0.012257297 -0.0033954852
-0.012499999 -0.0082791857 -0.0033335686
-0.012499999 0.0017701458 -0.0033654594
0.012499999 0.0021344526 -0.003329535
-0.012499999 0.0064136256 -0.0033636554
0.012499999 0.0067323796 -0.0033569883
0.012499999 0.0074434704 -0.0033422338
-0.012499999 0.0083565759 -0.0033906861
-0.012499999 0.011711031 -0.0033612498
0.012499999 0.011792625 -0.0033784478
0.012499999 0.013711683 -0.0033746548
-0.010898404 0.015835006 -0.0033350058
-0.010122967 0.015852595 -0.003352596
-0.0099375714 0.015842967 -0.0033429668
-0.0051225573 0.015878411 -0.0033784122
-0.0038858918 0.015892446 -0.0033924477
-0.001743759 0.015828144 -0.0033281459
-0.0010062512 0.015862424 -0.0033624237
0.0054996754 0.01585833 -0.003358331
-0.010641027 -0.015758328 -0.0032583284
-0.0055217459 -0.015734378 -0.003234379
-0.0054193232 -0.01573628 -0.0032362805
-0.0033166944 -0.015703745 -0.0032037459
-0.00065794482 -0.015786776 -0.0032867761
0.0041328385 -0.015789578 -0.0032895785
0.010452958 -0.01575264 -0.0032526401
0.011722175 -0.015747236 -0.0032472378
-0.012499999 -0.014817378 -0.0032641515
0.012499999 -0.014733042 -0.0032037692
-0.012499999 -0.012728938 -0.0032599145
-0.012499999 -0.011549602 -0.0032023233
-0.012499999 -0.0059927721 -0.0032071811
-0.012499999 0.00010162486 -0.0032077879
-0.012499999 0.0013148809 -0.0032478073
-0.012499999 0.0021349799 -0.0032423567
0.012499999 0.0039021778 -0.0032947869
-0.012499999 0.012765099 -0.0032132515
0.012499999 0.014801309 -0.0032163286
-0.0077965297 0.015722612 -0.0032226122
0.00088013709 0.015795739 -0.0032957408
0.0010896712 0.015770894 -0.0032708934
0.0012022229 0.015760219 -0.003260219
0.0081014112 0.015771151 -0.0032711506
0.010794254 0.015706668 -0.0032066682
0.011018423 0.015752468 -0.0032524685
-0.011855789 -0.015604414 -0.0031044146
-0.0096514001 -0.01568404 -0.0031840403
-0.0069505163 -0.015633186 -0.0031331868
-0.0064785057 -0.015659237 -0.0031592376
-0.0059753656 -0.015658503 -0.0031585044
-0.0041124728 -0.015606131 -0.0031061326
-0.0025695891 -0.015686795 -0.0031867966
-0.00055309176 -0.015618068 -0.0031180687
0.0014618507 -0.015664237 -0.0031642367
0.0064252787 -0.01566668 -0.0031666816
0.0076478026 -0.015644638 -0.0031446381
0.010968599 -0.015636709 -0.0031367084
0.011007806 -0.015662471 -0.003162472
0.011742724 -0.015666023 -0.0031660232
0.012499999 -0.01228743 -0.0031907628
0.012499999 -0.01006758 -0.0031426798
0.012499999 -0.0080433842 -0.003138527
0.012499999 -0.00511932 -0.0031381664
0.012499999 -0.0039531346 -0.0031559432
-0.012499999 -0.0038909705 -0.0031402507
-0.012499999 -0.0034665288 -0.0031980705
0.012499999 -0.0023817364 -0.0031515604
-0.012499999 -0.00082015991 -0.0031249998
0.012499999 0.00014876295 -0.0031732239
0.012499999 0.00053332932 -0.0031093732
-0.012499999 0.0012269997 -0.0031323223
0.012499999 0.0038236612 -0.0031763047
0.012499999 0.0056916825 -0.0031925351
0.012499999 0.011769315 -0.0031250024
-0.012499999 0.012624131 -0.0031834841
-0.012499999 0.014008381 -0.0031237798
-0.012499999 0.015374684 -0.0031585335
-0.006395916 0.015625276 -0.0031252766
-0.0058318241 0.015606394 -0.0031063948
-0.0022114525 0.015696244 -0.0031962451
-0.00060923677 0.015673351 -0.0031733508
0.0025084717 0.015682949 -0.0031829486
0.0091606556 0.015651219 -0.0031512186
-0.0085244626 -0.015524532 -0.0030245327
-0.0074821003 -0.015578086 -0.003078087
-0.0029550274 -0.015555555 -0.0030555567
0.0012958574 -0.015522679 -0.0030226794
0.0063416017 -0.015517537 -0.0030175373
0.0075267507 -0.015505614 -0.0030056147
0.012499999 -0.015295632 -0.0030365398
0.012499999 -0.014126224 -0.0030236193
0.012499999 -0.012623521 -0.003059289
0.012499999 -0.01223824 -0.0030034245
0.012499999 -0.012184706 -0.0030242258
0.012499999 -0.011402759 -0.0030346666
-0.012499999 -0.010271624 -0.003080992
0.012499999 -0.008874543 -0.0030362885
0.012499999 -0.0073195393 -0.0030491413
0.012499999 -0.006961572 -0.003045189
0.012499999 -0.0058121579 -0.0030275634
-0.012499999 -0.0053028925 -0.003014748
-0.012499999 -0.0045494842 -0.0030159773
0.012499999 -0.0037439773 -0.0030824938
-0.012499999 0.00026896459 -0.0030165911
-0.012499999 0.0013763477 -0.0030196654
0.012499999 0.0023485585 -0.0030155613
-0.012499999 0.0034662804 -0.0030337917
-0.012499999 0.0049919677 -0.0030049095
-0.012499999 0.0054407157 -0.0030595558
-0.012499999 0.0071391687 -0.0030294936
-0.012224587 0.015537381 -0.0030373817
-0.010626188 0.015505473 -0.0030054743
-0.0039230981 0.015596612 -0.0030966133
-0.0036094338 0.015570219 -0.0030702194
-0.0031292718 0.015577029 -0.0030770295
-0.00065208972 0.015555363 -0.0030553641
-0.00049452018 0.015589204 -0.003089204
0.0029616291 0.015594074 -0.0030940739
0.0040671369 0.015581044 -0.0030810453
0.0056838235 0.015501214 -0.0030012149
0.0076332754 0.015536655 -0.0030366553
0.0085173473 0.015515856 -0.0030158558
0.0096547883 0.015569142 -0.0030691423
0.011698391 0.01555399 -0.0030539907
0.012306271 0.015558318 -0.003058319
-0.0082468409 -0.015441098 -0.002941099
-0.0065567358 -0.015477782 -0.0029777824
-0.0019227851 -0.015436294 -0.002936295
0.00072125869 -0.015431074 -0.0029310752
0.0010895546 -0.015419121 -0.0029191212
0.0031211982 -0.015442047 -0.002942048
0.0071047675 -0.015449677 -0.0029496772
0.012499999 -0.0083624683 -0.0029194709
-0.012499999 -0.0075114002 -0.0029587103
0.012499999 -0.0072913109 -0.0029716252
-0.012499999 -0.0051879506 -0.0029012291
-0.012499999 -0.0047626374 -0.0029303059
-0.012499999 -0.0041439841 -0.0029061818
0.012499999 -0.003183255 -0.0029358598
0.012499999 0.0023634476 -0.0029911767
-0.012499999 0.0031693068 -0.0029265964
-0.012499999 0.0072326809 -0.0029821349
-0.012499999 0.010492822 -0.0029086592
0.012499999 0.011315727 -0.0029790429
-0.012499999 0.014628696 -0.0029839827
0.012499999 0.015349623 -0.0029182928
-0.0077509005 0.015495028 -0.0029950298
-0.0069402172 0.015454312 -0.0029543124
-0.0058370247 0.015453196 -0.0029531969
-0.005041698 0.015462014 -0.0029620146
0.0043286439 0.015463473 -0.0029634743
0.0048479647 0.015423787 -0.0029237871
0.0058962656 0.015486013 -0.0029860139
0.0091537898 0.015474356 -0.0029743563
0.011676268 0.015475796 -0.0029757963
0.01203621 0.015499946 -0.002999946
-0.012270831 -0.015357037 -0.0028570378
-0.0020875263 -0.0153369 -0.002836901
-0.0012212539 -0.015365683 -0.0028656847
0.0011772885 -0.015312313 -0.0028123138
0.0042926446 -0.015363764 -0.0028637641
0.0043081194 -0.015322653 -0.0028226534
0.0051657874 -0.015307822 -0.0028078232
0.0058481283 -0.015390417 -0.0028904181
0.0066293087 -0.015373164 -0.0028731644
0.012499999 -0.014294893 -0.0028621929
0.012499999 -0.0088396277 -0.0028976328
0.012499999 -0.0083122524 -0.0028968039
-0.012499999 -0.0075110262 -0.0028136717
0.012499999 -0.0075260499 -0.0028973646
-0.012499999 -0.0068845004 -0.0028882204
0.012499999 -0.0066010281 -0.0028590935
-0.012499999 -0.00319216 -0.0028869808
0.012499999 0.0066286568 -0.0028782173
-0.012499999 0.0083496822 -0.0028124256
0.012499999 0.0097454097 -0.0028907622
-0.012499999 0.010420163 -0.0028005866
-0.012499999 0.012301305 -0.0028242543
0.012499999 0.013146158 -0.0028676894
-0.011560723 0.015369982 -0.002869983
-0.0015387442 0.015329083 -0.0028290842
-0.0014856579 0.015390834 -0.0028908353
0.00099146925 0.015329012 -0.0028290125
0.0017382982 0.01536084 -0.0028608413
0.0044071968 0.015325156 -0.0028251568
0.0050253468 0.015368978 -0.0028689792
0.00630935 0.015311916 -0.0028119169
0.0086602783 0.015398807 -0.0028988074
0.010596525 0.01530288 -0.0028028802
0.011566165 0.01537739 -0.0028773909
-0.012189075 -0.015248337 -0.0027483371
0.00015696499 -0.015281366 -0.0027813665
0.0059195524 -0.01528326 -0.0027832601
0.0088208606 -0.01526144 -0.0027614406
-0.012499999 -0.012792953 -0.002728113
-0.012499999 -0.011613728 -0.0027406337
-0.012499999 -0.009076478 -0.0027475143
-0.012499999 -0.0076385844 -0.0027362527
0.012499999 -0.005669313 -0.0027155725
0.012499999 -0.0049728532 -0.0027000152
-0.012499999 -0.0039573889 -0.0027237292
0.012499999 -0.0038236491 -0.0027287917
-0.012499999 -0.0028100687 -0.002735001
0.012499999 -0.0025025671 -0.0027249877
0.012499999 0.00013294537 -0.0027995016
-0.012499999 0.0019248473 -0.0027130768
0.012499999 0.0035375436 -0.0027381007
0.012499999 0.0070834807 -0.0027868748
0.012499999 0.0078552403 -0.0027199562
0.012499999 0.0081490409 -0.0027511455
0.012499999 0.0082827611 -0.0027756458
-0.012499999 0.0088545913 -0.0027356269
-0.012499999 0.011167981 -0.0027556447
-0.012499999 0.011551249 -0.0027650176
-0.012499999 0.014789841 -0.0027525183
-0.0095811114 0.015226304 -0.0027263043
-0.009357553 0.015284568 -0.0027845684
-0.0075369119 0.015246925 -0.0027469255
-0.0072400942 0.015294412 -0.0027944136
0.0031423243 0.015206316 -0.0027063163
-0.010913886 -0.0151853 -0.002685301
-0.0010159317 -0.01514689 -0.0026468905
-0.00070928287 -0.015126849 -0.0026268491
0.0038027018 -0.015129765 -0.0026297653
0.0079366146 -0.015124122 -0.0026241224
0.012423277 -0.015139749 -0.0026397496
0.012499999 -0.014159793 -0.0026756693
-0.012499999 -0.009524921 -0.0026496286
-0.012499999 -0.0060627442 -0.0026420727
-0.012499999 -0.0052764714 -0.0026162276
0.012499999 -0.00035931543 -0.002614201
-0.012499999 0.0019339457 -0.0026534051
-0.012499999 0.0029884148 -0.0026351437
0.012499999 0.0033849515 -0.0026218556
0.012499999 0.0060317316 -0.0026399845
0.012499999 0.0073153004 -0.0026200213
-0.012499999 0.0097017689 -0.00261686
0.012499999 0.011277422 -0.0026244968
0.012499999 0.011488036 -0.0026331306
-0.012499999 0.014083525 -0.0026427032
-0.012499999 0.01445563 -0.0026162276
-0.0062992722 0.015139101 -0.0026391023
-0.0061577111 0.015168944 -0.0026689442
-0.0047909487 0.01517833 -0.0026783315
-0.0026111808 0.01513678 -0.0026367814
-0.0024659606 0.015113275 -0.0026132765
0.0045283153 0.015173465 -0.0026734653
0.0055091921 0.015135606 -0.0026356075
0.007682927 0.015198885 -0.0026988853
0.008369185 0.01511812 -0.0026181214
0.012247758 0.015197211 -0.0026972122
-0.012081457 -0.015031086 -0.0025310866
-0.0096823741 -0.015070314 -0.0025703136
-0.0053910934 -0.015021355 -0.0025213561
-0.0036702943 -0.015030359 -0.0025303597
-0.00029817875 -0.015090212 -0.0025902127
0.0057845381 -0.015029667 -0.0025296682
0.0089952508 -0.015004853 -0.0025048538
-0.012499999 -0.011373099 -0.002575797
0.012499999 -0.0096120834 -0.0025448687
-0.012499999 -0.0072842496 -0.0025707362
-0.012499999 -0.0050513777 -0.0025257394
-0.012499999 -0.0041391519 -0.0025035096
0.012499999 -0.0038714693 -0.0025077176
-0.012499999 -0.0010197203 -0.0025922358
-0.012499999 0.0037331127 -0.0025574416
-0.012499999 0.0055306037 -0.0025320854
-0.012499999 0.0064261938 -0.0025409656
0.012499999 0.0090053473 -0.0025349816
0.012499999 0.011467719 -0.0025947806
0.012499999 0.012591595 -0.002533399
0.012499999 0.014072924 -0.0025551198
-0.011923434 0.015074997 -0.0025749975
-0.010729052 0.015072641 -0.0025726419
-0.0090335906 0.015080275 -0.0025802751
-0.0068354439 0.015063205 -0.0025632055
-0.0037038755 0.015088675 -0.0025886751
-0.0025859149 0.015080071 -0.0025800716
-0.001881686 0.015003305 -0.0025033057
0.0011399295 0.015085592 -0.0025855927
0.0055822236 0.015000776 -0.0025007771
0.0058440603 0.015045731 -0.0025457318
0.010667856 0.015027069 -0.0025270702
-0.009854963 -0.014991087 -0.0024910881
-0.0084972288 -0.014925154 -0.0024251551
-0.0061658854 -0.014960097 -0.0024600979
-0.002044396 -0.014961387 -0.0024613873
0.0089894924 -0.014903657 -0.0024036579
0.012499999 -0.014087881 -0.0024451455
0.012499999 -0.013379205 -0.0024881938
0.012499999 -0.011256202 -0.0024766168
-0.012499999 -0.0095920553 -0.0024729669
0.012499999 -0.008041786 -0.0024135315
0.012499999 -0.0040255771 -0.0024230583
0.012499999 -0.0024155243 -0.002462347
0.012499999 -0.0019515008 -0.0024533118
0.012499999 -0.0018842155 -0.0024210983
-0.012499999 0.00070169492 -0.0024500201
0.012499999 0.001156006 -0.0024259111
0.012499999 0.0021781204 -0.0024083918
-0.012499999 0.0092086848 -0.0024174508
0.012499999 0.010928509 -0.0024000392
0.012499999 0.012241919 -0.0024240529
-0.011887485 0.014943734 -0.0024437339
0.00026682485 0.01490412 -0.0024041212
0.0016245837 0.014967588 -0.0024675881
0.0028496659 0.014969888 -0.0024698889
0.0029669786 0.014940344 -0.0024403445
0.0031931286 0.014972051 -0.0024720512
0.0050451076 0.014921391 -0.0024213919
0.011177981 0.014945298 -0.0024452987
-0.010855569 -0.014885895 -0.0023858962
-0.0055286237 -0.014800659 -0.0023006601
0.00074459752 -0.014811626 -0.0023116274
0.00087772729 -0.014802711 -0.0023027109
0.0030653905 -0.014887739 -0.0023877397
0.003488377 -0.014806831 -0.0023068318
0.0035828003 -0.014832959 -0.0023329589
0.0076437108 -0.014831183 -0.0023311845
-0.012499999 -0.013562843 -0.0023488896
-0.012499999 -0.011081169 -0.0023437496
0.012499999 -0.010643706 -0.0023480281
-0.012499999 -0.0094835702 -0.0023687854
-0.012499999 -0.0078356843 -0.0023450339
-0.012499999 -0.0059623253 -0.0023867339
-0.012499999 -0.0056596254 -0.002348247
-0.012499999 -0.005073871 -0.0023553101
-0.012499999 -0.0036203042 -0.0023995396
0.012499999 0.0014955886 -0.0023097508
0.012499999 0.0030104322 -0.0023133527
-0.012499999 0.0053936299 -0.0023096586
-0.012499999 0.0060291057 -0.0023141662
-0.012499999 0.007432614 -0.0023924978
0.012499999 0.0088965474 -0.0023573481
0.012499999 0.0092883604 -0.0023889937
-0.012499999 0.010152626 -0.0023598028
0.012499999 0.011840779 -0.0023441087
-0.012499999 0.013753636 -0.0023025749
-0.0085226484 0.014806889 -0.002306889
-0.0074185226 0.014800023 -0.0023000236
-0.011928901 -0.014799881 -0.002299882
-0.010754904 -0.014764961 -0.0022649616
-0.0042548073 -0.014792375 -0.002292376
0.0003335675 -0.014735236 -0.0022352361
0.0047139432 -0.014736285 -0.0022362857
0.00856434 -0.01474355 -0.0022435498
0.012499999 -0.013579129 -0.0022924307
0.012499999 -0.012876401 -0.0022676385
-0.012499999 -0.012669252 -0.0022121007
-0.012499999 -0.011493713 -0.0022108043
0.012499999 -0.010471721 -0.002230217
0.012499999 -0.0082000978 -0.0022422986
0.012499999 -0.0063986611 -0.0022279243
0.012499999 -0.0025914144 -0.0022441039
-0.012499999 -0.0023532598 -0.00223283
0.012499999 -0.00035887444 -0.0022358873
0.012499999 0.00039465586 -0.002226884
-0.012499999 0.00046434405 -0.0022438299
-0.012499999 0.0016315479 -0.0022036713
0.012499999 0.0016107606 -0.0022478299
0.012499999 0.0042764284 -0.0022235948
0.012499999 0.0046231952 -0.002217096
0.012499999 0.0059735547 -0.002272571
-0.012499999 0.0071027926 -0.0022250609
0.012499999 0.010293329 -0.0022295699
0.012499999 0.010766233 -0.0022424804
0.012499999 0.013177731 -0.0022856868
-0.012499999 0.013711832 -0.0022954866
-0.012499999 0.013857124 -0.0022742003
0.012499999 0.014226273 -0.0022216109
-0.0088389385 0.014751194 -0.0022511943
-0.0087401774 0.014759107 -0.0022591073
-0.0063403174 0.014780644 -0.0022806455
-0.0055381432 0.014783632 -0.0022836332
-0.0043121972 0.014749423 -0.0022494229
-0.0021301964 0.014793955 -0.0022939553
-0.00014865212 0.014728374 -0.0022283741
-0.010354899 -0.014694427 -0.0021944286
-0.0087437704 -0.01469002 -0.0021900206
-0.0072656814 -0.014623395 -0.0021233957
-0.0043603447 -0.014660698 -0.0021606996
-0.003329955 -0.014640582 -0.002140583
0.0022199159 -0.014677159 -0.0021771602
0.011408947 -0.014624861 -0.0021248613
0.01234708 -0.014625954 -0.0021259552
0.012499999 -0.012798128 -0.0021600346
0.012499999 -0.012219114 -0.0021325543
-0.012499999 -0.01155155 -0.002167955
-0.012499999 -0.0078778407 -0.0021471353
0.012499999 -0.0061304872 -0.002124859
-0.012499999 -0.0048706317 -0.0021880968
-0.012499999 -0.0019865688 -0.0021217195
0.012499999 0.00046062376 -0.0021139178
-0.012499999 0.00085396488 -0.0021047527
-0.012499999 0.0019515895 -0.0021204157
0.012499999 0.0077251354 -0.0021963522
-0.012499999 0.010024654 -0.0021738065
0.012499999 0.010199332 -0.0021880055
-0.0092547778 0.014678961 -0.0021789616
-0.00081782043 0.014605612 -0.0021056135
0.0012115119 0.014618228 -0.0021182289
0.0052819992 0.014627334 -0.002127334
-0.012281224 -0.014514197 -0.0020141979
-0.011953482 -0.014512538 -0.002012539
-0.0081385337 -0.014500132 -0.0020001328
-0.0059133186 -0.014510154 -0.0020101536
-0.00029632973 -0.014590278 -0.002090279
0.0029598176 -0.014513744 -0.0020137443
0.0034748774 -0.0145957 -0.0020957009
0.0040565748 -0.014526826 -0.0020268271
0.0058594141 -0.014527041 -0.0020270413
0.012499999 -0.01443697 -0.0020018625
0.012499999 -0.013336216 -0.0020080921
-0.012499999 -0.012947517 -0.0020825341
-0.012499999 -0.011159452 -0.0020327466
-0.012499999 -0.0099515039 -0.0020537302
0.012499999 -0.0091819428 -0.0020557065
0.012499999 -0.0039935648 -0.0020269067
0.012499999 -0.0010052333 -0.0020586438
-0.012499999 0.0057777623 -0.0020949543
-0.012499999 0.0067596007 -0.0020550415
0.012499999 0.0091373818 -0.002023655
-0.012499999 0.011250104 -0.0020766463
-0.010228954 0.014586492 -0.002086493
-0.0045689046 0.01456634 -0.0020663401
-0.0037256372 0.014556924 -0.0020569246
-0.00015920401 0.014579181 -0.0020791814
-8.7432563e-05 0.014523789 -0.0020237891
0.0052661318 0.014506877 -0.0020068788
0.0072507234 0.014592492 -0.002092493
0.010363196 0.014578111 -0.0020781122
0.011177476 0.014580759 -0.00208076
-0.0097210333 -0.014467271 -0.0019672718
-0.0052385256 -0.014480759 -0.0019807599
-0.00079346972 -0.014484963 -0.0019849637
-4.4573622e-05 -0.014453877 -0.0019538773
0.00088124361 -0.014469508 -0.0019695093
0.0019593604 -0.014438753 -0.0019387534
0.006605498 -0.014433701 -0.0019337009
0.0092907585 -0.014406851 -0.0019068511
0.0099585075 -0.014416259 -0.0019162595
0.010045261 -0.014424305 -0.0019243062
0.012004998 -0.014475843 -0.0019758441
0.012311069 -0.014496575 -0.0019965749
0.012499999 -0.012327375 -0.0019538964
-0.012499999 -0.012113739 -0.001993319
-0.012499999 -0.011272223 -0.0019081859
-0.012499999 -0.0067175627 -0.001953125
-0.012499999 -0.0023198652 -0.0019794935
-0.012499999 -0.00017856744 -0.0019834461
0.012499999 -0.00012132898 -0.0019149128
0.012499999 0.005452258 -0.0019315917
-0.012499999 0.0075415978 -0.0019095093
0.012499999 0.0091408622 -0.0019999072
0.012499999 0.010130147 -0.0019296962
-0.012403682 0.014405598 -0.0019055988
-0.009700425 0.014400462 -0.0019004624
-0.0053697601 0.014444908 -0.0019449095
-0.0046090856 0.014467113 -0.0019671142
0.00067754276 0.01441001 -0.0019100108
0.0022388457 0.014442209 -0.0019422097
0.0040071374 0.014444093 -0.0019440943
0.0041788658 0.01449618 -0.001996181
0.0065042614 0.014469713 -0.0019697133
0.0079420432 0.014402954 -0.0019029551
0.0086850431 0.014405198 -0.0019051987
0.010765916 0.014496255 -0.0019962559
0.010962496 0.014497164 -0.0019971645
0.011615659 0.014456086 -0.0019560866
-0.0081431549 -0.014304935 -0.0018049362
-0.0041926503 -0.01432436 -0.0018243603
-0.0026162276 -0.014330615 -0.0018306156
-0.0017755574 -0.014343168 -0.0018431684
-0.0010403511 -0.014349181 -0.0018491817
4.826521e-06 -0.014369398 -0.0018693982
0.00059856183 -0.014352358 -0.0018523586
0.010690262 -0.014393176 -0.0018931767
-0.012499999 -0.012831598 -0.0018916288
0.012499999 -0.012102087 -0.0018315101
-0.012499999 -0.011281096 -0.0018312009
-0.012499999 -0.011105996 -0.0018876521
0.012499999 -0.010688509 -0.0018529078
-0.012499999 -0.0093977721 -0.0018564658
0.012499999 -0.0090193264 -0.001821345
0.012499999 -0.0085743275 -0.0018715239
-0.012499999 -0.0063838703 -0.0018850015
0.012499999 -0.0060744914 -0.0018763012
-0.012499999 -0.0053121452 -0.0018929541
-0.012499999 -0.0049998383 -0.0018212153
0.012499999 -0.001214168 -0.0018833885
-0.012499999 0.0025302267 -0.0018245438
-0.012499999 0.0036634146 -0.0018763794
-0.012499999 0.0093392599 -0.0018285373
-0.012305841 0.014347295 -0.001847296
-0.010438619 0.014319624 -0.0018196248
-0.010067258 0.014383718 -0.0018837191
-0.0098383203 0.014304629 -0.0018046292
-0.0077711418 0.014316944 -0.0018169448
-0.0056077968 0.014312597 -0.0018125976
-0.0039027613 0.01439587 -0.0018958708
-0.00309751 0.01431955 -0.0018195515
-0.0016887495 0.014317301 -0.0018173018
0.0031816636 0.014373721 -0.0018737216
0.0033150138 0.014310222 -0.0018102232
0.0038996111 0.014311606 -0.0018116068
0.0075197695 0.014325597 -0.0018255981
-0.011650136 -0.014216063 -0.0017160636
-0.0094168112 -0.014283918 -0.0017839186
-0.0051744319 -0.014228866 -0.0017288669
-0.0049025514 -0.014260129 -0.0017601298
-0.0019214181 -0.014213246 -0.0017132475
0.0042485823 -0.014203692 -0.0017036923
0.0069851317 -0.01429158 -0.0017915806
0.010872494 -0.014230928 -0.0017309287
0.012472345 -0.014239402 -0.0017394014
0.012499999 -0.014088266 -0.0017586908
0.012499999 -0.009040053 -0.001746588
0.012499999 -0.0027889037 -0.0017365714
0.012499999 -0.0020255842 -0.0017620249
0.012499999 -0.0017952938 -0.0017028378
0.012499999 0.003651666 -0.0017231381
0.012499999 0.004986227 -0.0017670924
0.012499999 0.0075850459 -0.0017547125
0.012499999 0.0087581007 -0.0017717951
0.012499999 0.0090318071 -0.0017467597
-0.012499999 0.0092522688 -0.0017511221
0.012499999 0.011091033 -0.0017748009
0.012499999 0.012186915 -0.0017829943
0.012499999 0.013917222 -0.0017863931
-0.0051041469 0.01426119 -0.0017611909
-0.0044803973 0.014299674 -0.0017996754
0.0054133888 0.014209617 -0.0017096173
0.008016441 0.014220098 -0.0017200988
-0.0081103276 -0.014148215 -0.0016482156
-0.0002442355 -0.014148173 -0.0016481737
0.0043166899 -0.014100567 -0.0016005681
0.0046728863 -0.01419037 -0.0016903711
-0.012499999 -0.012280084 -0.0016389247
0.012499999 -0.01111882 -0.0016966441
-0.012499999 -0.0095736533 -0.0016348781
-0.012499999 -0.0015826217 -0.001653756
0.012499999 0.0023389738 -0.0016491343
0.012499999 0.0073851151 -0.001617993
-0.012499999 0.0082220724 -0.0016294792
-0.012499999 0.0087901969 -0.0016625132
0.012499999 0.011544397 -0.0016849297
0.012499999 0.012161571 -0.0016709385
-0.011874577 0.014125611 -0.0016256119
-0.0081680864 0.014126673 -0.0016266741
-0.0063585322 0.01419122 -0.0016912202
-0.0044787121 0.014198143 -0.0016981435
-0.0031786188 0.014117599 -0.0016175988
-0.0013582436 0.014144065 -0.0016440651
0.0038580939 0.014134413 -0.0016344131
0.0078737689 0.014165429 -0.0016654301
0.0095844902 0.014177961 -0.0016779616
0.010080265 0.01411621 -0.0016162107
0.0090168836 -0.014092149 -0.00159215
0.010531914 -0.014054545 -0.0015545459
-0.012499999 -0.012171706 -0.0015794439
0.012499999 -0.0076918351 -0.0015911893
-0.012499999 -0.0049290797 -0.0015156288
0.012499999 -0.00099338684 -0.0015426556
-0.012499999 0.00038255393 -0.0015848624
0.012499999 0.00067917211 -0.0015757137
0.012499999 0.001850076 -0.001597146
-0.012499999 0.0032853663 -0.0015909532
-0.012499999 0.0049632671 -0.0015835073
0.012499999 0.0058458303 -0.001577314
0.012499999 0.0060385857 -0.001557546
0.012499999 0.0069553526 -0.0015422192
-0.012499999 0.0078083016 -0.0015244707
-0.012499999 0.0086498661 -0.0015135873
-0.012499999 0.010328033 -0.0015543597
-0.012499999 0.01080713 -0.0015896009
0.012499999 0.011055314 -0.0015318128
-0.012499999 0.012233889 -0.0015040562
0.012499999 0.012352792 -0.001566912
-0.012499999 0.013209982 -0.0015312703
-0.010503383 0.014095716 -0.001595716
-0.0068876557 0.014086751 -0.0015867515
-0.0061960071 0.01406927 -0.0015692714
-0.005291136 0.014049394 -0.001549395
2.2891909e-06 0.014058781 -0.0015587821
0.0041884622 0.014003288 -0.0015032893
0.0059721842 0.014055657 -0.0015556575
0.0094323764 0.014039231 -0.0015392322
0.01205674 0.014009205 -0.0015092054
-0.011762418 -0.013943042 -0.0014430422
-0.010130137 -0.013935959 -0.0014359601
-0.0089305956 -0.013922562 -0.001422563
-0.0048531611 -0.01397764 -0.0014776408
0.0015894428 -0.01397026 -0.0014702601
0.0023314469 -0.013954881 -0.0014548815
0.0046618963 -0.013956327 -0.0014563277
0.007556119 -0.013948513 -0.0014485139
0.0076306849 -0.013919923 -0.0014199237
0.0079575581 -0.013935151 -0.0014351516
0.010751085 -0.013933972 -0.0014339732
0.011258013 -0.013922591 -0.0014225913
0.012000673 -0.01391975 -0.0014197505
0.012499999 -0.013406286 -0.0014370574
-0.012499999 -0.012459873 -0.0014042752
-0.012499999 -0.011628742 -0.0014344212
0.012499999 -0.00977901 -0.0014109182
-0.012499999 -0.0086527616 -0.0014740601
-0.012499999 -0.0085958904 -0.0014357893
-0.012499999 -0.0082176635 -0.0014883848
-0.012499999 -0.0062910537 -0.0014494704
-0.012499999 -0.0061235274 -0.0014460506
-0.012499999 -0.0052910196 -0.0014549373
0.012499999 -0.0032473379 -0.0014191414
-0.012499999 -0.0028192881 -0.0014508367
-0.012499999 0.0019028038 -0.0014487859
-0.012499999 0.0022749419 -0.0014077034
0.012499999 0.006643319 -0.0014895764
-0.012499999 0.010794295 -0.0014617695
-0.012499999 0.012460444 -0.0014419481
-0.011785205 0.01391276 -0.00141276
-0.0080709588 0.013937961 -0.0014379618
-0.00084786303 0.013903121 -0.0014031217
0.0059785405 0.01395331 -0.00145331
0.0078944508 0.01391158 -0.0014115805
-0.0096905418 -0.013888727 -0.001388728
-0.0093483888 -0.013847269 -0.0013472702
-0.0059526376 -0.013806254 -0.0013062542
-0.0022457698 -0.013835859 -0.0013358598
0.00084274943 -0.013804436 -0.0013044362
0.0030591218 -0.013860185 -0.0013601856
0.0056462428 -0.013829365 -0.0013293659
0.0057041561 -0.013832932 -0.0013329333
-0.012499999 -0.0082681822 -0.0013754386
-0.012499999 -0.0070627634 -0.001378186
0.012499999 -0.0051526302 -0.0013931238
0.012499999 0.0034120157 -0.0013336632
0.012499999 0.0059143319 -0.0013986684
0.012499999 0.0092242491 -0.0013651173
0.012499999 0.010653753 -0.0013791136
0.012499999 0.010807185 -0.0013352646
0.012499999 0.012109889 -0.0013992465
-0.010829829 0.013879029 -0.0013790301
-0.0052879178 0.013849979 -0.0013499805
-0.0017945524 0.01381842 -0.0013184207
0.0016131161 0.013862763 -0.0013627631
0.0032245158 0.013897666 -0.0013976665
-0.0083110947 -0.013721425 -0.0012214258
-0.00497965 -0.013777067 -0.0012770672
0.0028479488 -0.013765937 -0.0012659382
0.0039235023 -0.013744822 -0.0012448233
0.0040260637 -0.013710665 -0.0012106659
0.0049718721 -0.013731899 -0.0012318997
0.0061257505 -0.013718171 -0.0012181718
0.0087945815 -0.013770715 -0.0012707158
0.012499999 -0.012140295 -0.0012674187
0.012499999 -0.011505165 -0.0012745319
0.012499999 -0.010107618 -0.0012127787
-0.012499999 -0.0075447434 -0.001289947
-0.012499999 -0.0063771862 -0.0012678001
0.012499999 -0.0056051584 -0.0012526484
0.012499999 -0.0015868461 -0.0012193833
-0.012499999 0.0069656535 -0.0012982441
-0.012499999 0.010453048 -0.001283722
0.012499999 0.011422967 -0.0012884988
-0.011079485 0.013762901 -0.0012629016
-0.0098911952 0.013790051 -0.0012900524
-0.0048800688 0.01374284 -0.0012428407
-0.0034756791 0.013709083 -0.001209083
-0.002899372 0.013796354 -0.0012963552
-0.00010181963 0.013788425 -0.0012884261
0.0045554866 0.013711407 -0.0012114068
0.0059884591 0.013703537 -0.0012035384
0.0070576225 0.013735579 -0.0012355796
0.0077306014 0.0137894 -0.0012894003
0.012229972 0.013774829 -0.0012748297
-0.011198498 -0.013600166 -0.0011001665
-0.010145724 -0.013606232 -0.0011062323
-0.0094628874 -0.013683908 -0.0011839089
-0.0081200413 -0.01360301 -0.0011030107
-0.0078443997 -0.013672619 -0.0011726194
-0.0075140521 -0.013690641 -0.0011906424
-0.0074677779 -0.013607191 -0.0011071921
-0.0068605822 -0.013690309 -0.0011903094
-0.0017008437 -0.013677759 -0.0011777598
0.0022802153 -0.013663176 -0.0011631763
0.0064343847 -0.013665802 -0.0011658028
0.010995112 -0.013669868 -0.0011698687
0.011956729 -0.013699051 -0.0011990522
-0.012499999 -0.009206254 -0.0011243597
-0.012499999 -0.0064803851 -0.0011313576
-0.012499999 -0.0046466505 -0.0011166576
-0.012499999 -0.0017355282 -0.0011969637
0.012499999 -0.0014430867 -0.001196705
-0.012499999 0.00094158232 -0.0011641998
-0.012499999 0.0018617912 -0.0011481373
-0.012499999 0.0027636068 -0.0011711773
0.012499999 0.0030350545 -0.001111655
0.012499999 0.0040116939 -0.0011937525
-0.012499999 0.0059469249 -0.0011635022
-0.012499999 0.01278248 -0.0011089519
-0.0073955283 0.013692796 -0.0011927969
-0.0070063323 0.013609201 -0.001109202
-0.0069338395 0.013633149 -0.0011331493
-0.0041009872 0.013664333 -0.0011643348
0.00051729567 0.01369454 -0.0011945404
0.0041581672 0.013643622 -0.0011436234
0.0070158886 0.013623102 -0.0011231024
0.0072671147 0.013603888 -0.0011038892
0.0086389268 0.013659994 -0.0011599946
-0.010225596 -0.013507886 -0.0010078868
-0.0091713276 -0.01354921 -0.0010492095
-0.0074577443 -0.01354432 -0.0010443218
-0.0044674748 -0.013521992 -0.0010219929
-0.0013375832 -0.01358632 -0.0010863207
0.00021999289 -0.013595999 -0.0010960002
0.0013679055 -0.013583015 -0.0010830149
0.0042448612 -0.013567773 -0.0010677737
0.0051807165 -0.013511389 -0.0010113891
-0.012499999 -0.012389633 -0.0010626214
-0.012499999 -0.012284745 -0.0010738671
0.012499999 -0.010218943 -0.0010895424
0.012499999 -0.0068917479 -0.0010376516
0.012499999 -0.0049825027 -0.0010596741
0.012499999 0.00024608662 -0.0010973548
0.012499999 0.0046276045 -0.0010298686
-0.012499999 0.0057151164 -0.0010020137
-0.012499999 0.0068214051 -0.0010584015
0.012499999 0.011901585 -0.001029375
-0.011588058 0.013502891 -0.0010028924
-0.010443192 0.013553609 -0.0010536095
-0.010293059 0.013594426 -0.0010944266
-0.0070185512 0.013577644 -0.0010776449
-0.0025377944 0.013598664 -0.001098664
-0.0012310389 0.01358205 -0.0010820511
0.0065672686 0.013527099 -0.0010270996
0.0097233132 0.013573081 -0.001073082
0.0099537559 0.013545421 -0.0010454212
0.010851751 0.013531567 -0.0010315673
-0.011785991 -0.013449642 -0.00094964297
0.0012328443 -0.013493768 -0.00099376892
0.012499999 -0.0090311039 -0.00090567063
-0.012499999 -0.0086336927 -0.00093474519
0.012499999 -0.008337168 -0.00097137532
-0.012499999 -0.0056140074 -0.00094538927
-0.012499999 -0.0028153157 -0.00098717399
0.012499999 6.9539528e-05 -0.00099329161
-0.012499999 0.001965153 -0.00096594356
0.012499999 0.001945626 -0.00098019908
0.012499999 0.0044249133 -0.00091191335
-0.012499999 0.0045885323 -0.00098009966
0.012499999 0.0061008325 -0.00091789942
0.012499999 0.0064052655 -0.00099632237
-0.012499999 0.0069858753 -0.00098292995
0.012499999 0.0098814461 -0.00091425702
0.012499999 0.010384136 -0.00097753387
-0.012499999 0.011392343 -0.00095531624
-0.011069775 0.013440249 -0.00094025081
-0.0033486201 0.013473863 -0.00097386283
-0.0029235044 0.013491677 -0.00099167833
-0.0021854993 0.013444939 -0.00094493944
-0.00057646073 0.013423612 -0.00092361262
-0.00012676883 0.01340324 -0.00090324087
7.3458068e-05 0.01349574 -0.00099574029
0.00022013951 0.013422049 -0.0009220494
0.0022402569 0.013482577 -0.00098257815
0.0033000628 0.013408697 -0.00090869784
0.0049024541 0.013479017 -0.0009790177
0.0050796615 0.013486766 -0.00098676747
0.0061651925 0.013412048 -0.00091204932
-0.0087948851 -0.013392486 -0.00089248677
-0.0082127955 -0.013362054 -0.00086205429
-0.0060793408 -0.013350499 -0.00085049961
0.0026402876 -0.013389546 -0.00088954694
0.0056820759 -0.013345914 -0.00084591447
0.0059165359 -0.013332453 -0.00083245407
0.01042567 -0.013306528 -0.00080652954
0.012499999 -0.012546731 -0.00089933712
0.012499999 -0.0079606334 -0.00086347281
0.012499999 -0.006544569 -0.00082354323
0.012499999 -0.006158201 -0.00089145405
-0.012499999 -0.0055413679 -0.00089279842
-0.012499999 -0.0041573262 -0.00082426332
0.012499999 -0.0037752446 -0.00088945567
-0.012499999 -0.002972442 -0.00085357763
0.012499999 -0.0015637614 -0.00080344477
0.012499999 0.00080189435 -0.00084030605
0.012499999 0.0040650656 -0.00084992405
0.012499999 0.0052769389 -0.00086825481
0.012499999 0.0057837763 -0.00086179329
-0.012296611 0.013353886 -0.00085388607
-0.0051539168 0.013339191 -0.00083919126
-0.0049436041 0.013399321 -0.00089932117
-0.0042536687 0.013352497 -0.00085249846
0.00026760437 0.013312626 -0.00081262691
0.010903301 0.013352046 -0.00085204653
-0.011679733 -0.013267566 -0.0007675665
-0.0094246417 -0.013206439 -0.0007064396
-0.0042097806 -0.013255942 -0.00075594243
0.0023860401 -0.013221091 -0.00072109199
0.0034042022 -0.013201924 -0.00070192409
0.006600447 -0.013240235 -0.0007402359
-0.012499999 -0.012526843 -0.00078842975
-0.012499999 -0.011302153 -0.00073809642
0.012499999 -0.0078366483 -0.00078398822
-0.012499999 -0.0073084822 -0.00070491619
-0.012499999 -0.0041416651 -0.00071718823
0.012499999 -0.00085757067 -0.00074989768
0.012499999 -9.3050767e-05 -0.00073742168
-0.012499999 0.003429004 -0.00077837706
0.012499999 0.0075848037 -0.00076190243
-0.012499999 0.0076721893 -0.0007848395
0.012499999 0.0079061473 -0.00072854152
-0.012499999 0.0082648322 -0.00078340434
-0.010757774 0.01322419 -0.00072419067
-0.008008277 0.013283845 -0.00078384543
-0.0070234351 0.01329416 -0.00079416088
-0.0065677413 0.013262467 -0.0007624689
-0.0064905621 0.013212034 -0.00071203453
0.0036071721 0.013295566 -0.00079556601
0.0046980237 0.013267346 -0.00076734647
0.0049354308 0.013258382 -0.00075838238
0.0088604856 0.013267149 -0.0007671495
0.0097002033 0.013287125 -0.00078712637
0.010641072 0.013256039 -0.00075603882
0.011309057 0.013273396 -0.00077339588
0.011719854 0.01322357 -0.00072357059
-0.009203868 -0.013157572 -0.00065757218
-0.00027280735 -0.013116586 -0.00061658607
0.0037405493 -0.01313802 -0.00063802092
0.0047704466 -0.013183172 -0.00068317261
0.012499999 -0.012538471 -0.00067809306
-0.012499999 -0.012121237 -0.00064411014
0.012499999 -0.0061573153 -0.00065129553
-0.012499999 -0.0032844485 -0.00065063871
0.012499999 0.00011362415 -0.0006126049
0.012499999 0.0014232495 -0.00065027061
0.012499999 0.0047097765 -0.00068640709
0.012499999 0.0067265322 -0.0006459211
0.012499999 0.010754299 -0.00067605264
-0.0096647423 0.013103901 -0.00060390192
-0.0085094888 0.013160363 -0.00066036358
-0.0080352295 0.013123056 -0.00062305667
-0.0076427697 0.013174236 -0.00067423668
-0.0065797418 0.013133388 -0.00063338806
-0.0058484622 0.013180001 -0.00068000145
-0.0048619527 0.013161678 -0.00066167885
0.0017462771 0.01313955 -0.00063954998
0.0081466986 0.013111065 -0.00061106565
0.012169573 0.013153212 -0.00065321242
-0.0098958798 -0.013074059 -0.00057406013
-0.0035269349 -0.013069327 -0.00056932773
-0.0025073225 -0.013066831 -0.00056683132
0.0015631996 -0.013034379 -0.00053438015
0.0057735415 -0.013096369 -0.00059636915
